# .PCD v0.7 - Point Cloud Data file format
VERSION 0.7
FIELDS x y z intensity
SIZE 4 4 4 4
TYPE F F F F
COUNT 1 1 1 1
WIDTH 1211
HEIGHT 1
VIEWPOINT 0 0 0 1 0 0 0
POINTS 1211
DATA ascii
3.059788 -75.418312 14.216352 31
3.2845855 -43.475773 -1.439739 22
3.4219756 -42.948521 -1.2668835 22.056499
3.4782708 -39.335407 -1.3741846 22.077
3.5606258 -38.142094 -1.2585783 22.074499
3.246666 -37.931744 -1.2194926 22.1015
3.5593989 -36.235744 -1.2467933 22.080999
3.462275 -35.137745 -1.2153916 22
3.3986259 -38.464104 -1.1226155 22.056999
3.4700294 -38.137394 -1.0872796 22.081501
3.5376294 -36.210728 -1.1703596 22.101999
3.4681206 -35.117626 -1.0423881 22.02475
3.4256356 -24.693489 -1.1566759 21.060499
3.4859729 -19.632725 -0.90060991 21.050501
3.4291062 -19.253622 -0.95207983 21
3.4398015 -18.87574 -1.0867028 21.09375
3.3573024 -18.740013 -0.98255223 21.07
3.4155369 -18.202362 -1.0693952 21.099625
3.4217379 -17.399578 -1.0754652 20
3.4868636 -16.914251 -1.0293734 20
3.4129632 -16.293547 -1.039592 20
3.26842 -15.636236 -1.0773764 20
3.3824024 -14.615469 -1.0856336 20
3.4206512 -13.80412 -1.0211829 19
3.3717675 -13.473158 -1.0520939 19.333334
3.4072654 -11.774991 -1.0099077 18
3.3453157 -11.417465 -0.99327201 18
3.3557742 -11.010547 -1.0255159 18.5
3.3098106 -10.785071 -1.0029291 20
3.358619 -9.7180395 -0.95092988 18.63492
3.4448223 -9.3914719 -0.95140314 18.857143
3.3462465 -8.9242353 -0.96451825 17
3.4654367 -8.6565847 -0.98117644 17.4
3.3751442 -8.2493944 -0.99144626 16.5
3.4217782 -7.837934 -0.9667542 17.117647
3.4124553 -7.410224 -0.91370565 17.142857
3.4414408 -6.9337125 -0.97392297 16.538462
3.3315706 -6.5408278 -0.95875603 15.535714
3.3755937 -6.1583977 -0.95962071 15.5
3.4400754 -5.804266 -0.93424326 15.446666
3.4703565 -5.4213157 -0.93563014 14.431373
3.430203 -5.0524874 -0.96356362 14.017949
3.4087708 -4.5949817 -0.9367156 13.635417
3.4125574 -4.1686521 -0.93285161 14.343137
3.3398104 -3.8141189 -0.9302265 14.685607
3.4077971 -3.3829639 -0.92699188 13.883333
3.392344 -3.0247774 -0.9165951 12.616014
3.3983133 -2.5899191 -0.92220968 11.986833
3.3900211 -2.2053001 -0.9108302 10.290477
3.4325495 -1.7839923 -0.90708613 13.696078
3.374804 -1.4156712 -0.9028185 11.080209
3.3945742 -1.0315473 -0.90169215 8.1802082
3.38275 -0.60696137 -0.90676397 12.738775
3.3855298 -0.15987094 -0.90361434 11.571591
3.3848598 0.17818965 -0.89644355 10.007326
3.3529961 0.56794101 -0.90443474 11.339409
3.4274538 0.97344345 -0.89877748 9.0923615
3.3972542 1.41039 -0.89713615 11.070661
3.4250267 1.7713013 -0.89562845 11.455303
3.4292014 2.2144327 -0.888466 11.443453
3.4037232 2.6697741 -0.89025414 12.424604
3.3879848 3.005353 -0.88118935 13.354167
3.4115891 3.3468883 -0.87750769 13.448717
3.4470887 3.8185859 -0.88243747 11.394608
3.4300907 4.2022104 -0.87572402 13.886509
3.3629086 4.6178999 -0.87235093 14.005209
3.4261549 5.0238914 -0.86852658 11.81923
3.3985007 5.3587575 -0.86774582 13.586667
3.3590636 5.7668467 -0.8629843 12.519444
3.4102888 6.214921 -0.86929971 13.506594
3.378485 6.6547308 -0.85202909 12.38125
3.3480668 7.0173097 -0.83402461 12.245797
3.3645694 7.3970141 -0.83971852 13.925757
3.4021173 7.7528477 -0.83917701 14.3
3.3491452 8.1884079 -0.84892988 14.5
3.4420178 8.6350899 -0.8393985 14.777778
3.438571 8.9823055 -0.84147435 16.222221
3.4107149 9.3830481 -0.85402036 17.125
3.3811145 9.8245583 -0.82225841 16.78125
3.3644924 10.126129 -0.86823034 19
3.5054538 10.63147 -0.86639917 19
3.4703131 11.267241 -0.82594925 18
3.5367706 11.999237 -0.91909885 19
3.3186045 12.197821 -0.81766015 18.5
3.2093968 12.887939 -0.80132294 20
3.4190075 13.430984 -0.83292246 20
3.5877433 14.282499 -0.83437687 20
3.320251 14.507068 -0.81661701 20
3.5064743 15.95851 -0.80527794 20
3.4279704 17.128288 -0.81326228 21.164499
3.4680555 -54.823032 -0.51363134 23
3.5491972 -54.791641 -0.49247089 23.0555
3.3590548 -43.480217 -0.50778371 23
3.4686816 -39.395573 -0.48434159 23.074749
3.4728596 -35.023876 -0.42450413 23
3.3455079 -24.760708 -0.74912375 22.025499
3.4353077 -19.412127 -0.5496214 22
3.2320535 -12.070751 -0.42074591 22.1
3.4198916 -9.7387762 -0.65150088 20.298809
3.499692 -8.6305599 -0.69571203 19.666666
3.5665371 -5.7675204 -0.59127688 19.759672
3.5774157 -5.4977736 -0.62088245 17.6875
3.5030479 -4.4683447 -0.41103196 19
3.4823444 -4.3286796 -0.61358809 17.041666
3.3740036 -1.6492761 -0.57589167 2.5492423
3.387959 -1.4702249 -0.67768407 10.75
3.4068267 -0.065754808 -0.5944339 8.8866673
3.5022511 4.0473981 -0.51705098 1.9326923
3.2636523 6.7131081 -0.56289208 19.226191
3.3672917 6.9738355 -0.57946348 15.799152
3.5480385 7.5861783 -0.68743747 19
3.5195458 7.8347816 -0.57541513 16.272976
3.4638131 8.0136938 -0.67403692 14.25
3.2127872 9.5943165 -0.53617829 17.5
3.3282025 9.9171019 -0.56349456 19.094389
3.4318264 10.069943 -0.60266417 19.375929
3.3730047 12.16061 -0.5727312 20.282732
3.3120463 12.997363 -0.59271371 19.75
3.2200112 13.464921 -0.77002054 19
3.477329 14.6839 -0.7929582 19
3.3987782 14.913936 -0.77877086 19
3.3373981 15.682824 -0.73440254 20
3.3430991 16.761286 -0.73129243 20
3.3802574 18.234465 -0.5717243 20.862774
3.5051706 -54.82021 -0.35605574 23.118
3.5588348 -39.405479 -0.34929571 23.056999
3.4179018 -36.90654 -0.3799051 23.0695
3.5141048 -35.063202 -0.2578482 23
3.3421025 -24.779799 -0.23094727 23
3.59587 -23.899141 -0.22015227 23
3.4505432 -19.344423 -0.20755821 22.983332
3.5314443 -18.350166 -0.15375116 23.064501
3.2161696 -12.083677 -0.36559442 22.084999
3.4219196 -9.7501297 -0.22865002 22.253334
3.5902238 -9.2560825 -0.10128417 22.9
3.4845631 -8.5893641 -0.27868515 22.201374
3.5145504 -6.0239019 -0.22500442 22.183832
3.5299437 -5.764894 -0.1599067 22.302628
3.5675993 -5.4231906 -0.26635197 21.292931
3.3805048 -4.4784403 -0.20971158 20.793642
3.4420407 -4.3885207 -0.18296894 21
3.338604 -1.7778293 -0.13778238 19.14201
3.3494356 -0.080565095 -0.22640714 17.466518
3.5845227 3.9331532 -0.02255493 21.337938
3.5688622 4.0375853 -0.187842 14.565079
3.2875342 5.0381098 -3.814427e-05 23
3.3485875 6.6967621 -0.12865341 21.775671
3.4003048 6.9441109 -0.17175685 20.606113
3.58057 7.5339918 -0.28983721 21.060501
3.5157869 7.7916102 -0.1652026 20.667715
3.4581587 8.0425644 -0.046420239 22.033501
3.2088437 9.5877333 -0.16471289 21
3.3063543 10.115044 -0.25275469 21.455938
3.5110621 11.559076 -0.15908073 22
3.5917799 11.979924 -0.24600109 22
3.4088147 12.125922 -0.1467934 21.998745
3.3129253 12.996711 -0.15846857 21.75
3.402729 18.225727 -0.22837633 22.069332
3.4568241 -39.383526 0.36772174 24.074749
3.3748624 -35.077148 0.34591514 24.005909
3.4920511 -24.818481 0.25190103 24
3.5553772 -24.752672 0.17421196 24
3.588752 -23.83997 0.15808608 24
3.2748291 -20.596228 0.02362393 23.049999
3.3931279 -19.398439 0.1277397 24
3.4427633 -19.197821 0.20368558 24.084499
3.5162349 -17.760502 0.17155404 24.065001
3.3533046 -13.491397 0.32231429 24.052
3.4074116 -9.7455244 0.16500853 24.021652
3.5425258 -9.2444296 0.21956506 24.472319
3.5439575 -9.0795469 0.18353231 24.02857
3.2988436 -8.5913572 0.12515268 24.680168
3.4292724 -6.0580416 0.12085314 24.003607
3.4669955 -5.7663355 0.1725509 25.052322
3.5668931 -5.48247 0.18585452 25.551523
3.3343019 -4.5066743 0.20159842 24.513874
3.4259155 -4.2738166 0.2232711 24.754904
3.3372898 -1.7546538 0.12118133 27.805002
3.3899996 -1.444032 0.12195327 28.835041
3.4205911 -0.40341127 0.34531778 30.0005
3.3542321 -0.059261203 0.21801528 28.042833
3.5397553 3.8625586 0.12788136 26.869827
3.2545021 4.056314 0.19521989 24.715599
3.3242929 5.0429692 0.21538714 24.579998
3.4157255 6.678297 0.25181228 24.936352
3.3785491 6.9511619 0.21768022 25.119156
3.5136113 7.3829155 0.24390472 24.738001
3.4524367 7.7242265 0.21924265 24.971098
3.4968836 8.0394869 0.1997994 24.922777
3.2168136 9.5930834 0.042062085 23
3.5080669 11.500516 0.32936126 23.491467
3.4401169 11.763823 0.18828335 23.243166
3.4295003 12.159789 0.069331281 23.069771
3.2584739 12.481712 0.17418469 23.572063
3.5623071 13.385647 0.35156837 24.1045
3.3402073 18.308306 0.091475472 23.013834
3.4628036 18.594017 0.20280534 23.305439
3.2736661 18.842037 0.38348576 24.049
3.5024295 -54.849533 0.61356378 24.011099
3.4283733 -43.518551 0.45189941 24.025
3.4425225 -39.391514 0.43479505 24.063
3.4641623 -35.202076 0.79807585 24
3.4469526 -35.105965 0.59801096 24
3.4477115 -24.775896 0.66646892 24.7125
3.5879972 -23.838339 0.57978076 24.666666
3.2686207 -20.553259 0.504381 24.049999
3.5389738 -17.816212 0.4967095 25.065001
3.4128752 -9.7428112 0.58290941 25.87925
3.5487401 -9.2393799 0.43839025 25.375
3.5740101 -9.1760426 0.43332866 25
3.5534945 -5.8238745 0.4511635 26.745281
3.5807173 -5.5702925 0.4018223 28.666668
3.445888 -4.4817591 0.62472123 28.25
3.4511116 -4.3204827 0.56526995 27.889187
3.3879025 5.0498643 0.42784774 26.059
3.3733726 6.7141852 0.5354712 27.561049
3.4148142 6.9593143 0.56512302 28.443607
3.5746112 7.3515258 0.44253555 25
3.5020027 7.7819195 0.55706704 28.486296
3.5298395 8.0406942 0.4618195 27.76675
3.397676 18.338354 0.63748187 24.520134
3.5292609 18.686995 0.42586207 24.0023
3.3044024 18.866302 0.41302645 24.0315
3.4316933 -54.845005 1.0254431 24.109749
3.2655389 -43.510845 0.88123357 24
3.2094004 -36.805916 1.1570927 25.074499
3.2722838 -36.158714 1.123288 25.073334
3.2903736 -35.320297 1.1223135 25.020857
3.418005 -35.028061 1.1047968 25
3.471077 -24.759907 1.1772097 25.048332
3.3926811 -23.763229 1.1047146 25.598442
3.4247773 -9.7421446 0.98415679 28.037743
3.5210347 -4.4847288 0.88501221 30.509417
3.5557432 13.381857 1.0956873 26.034834
3.4244332 18.342999 0.98332763 25.66139
3.4698939 18.728516 1.0582341 25.1625
3.2227662 18.890684 1.1882691 25.159
3.3106613 -35.754242 1.4118205 25.088749
3.3084841 -35.447781 1.2705461 25.0415
3.370162 -35.027897 1.258534 25
3.3769472 -23.747107 1.4035547 26.327608
3.4209962 -9.7425117 1.3999077 28.714485
3.2088556 9.9435225 1.5596402 27.111
3.5486505 13.383525 1.4661279 27.815201
3.4628947 18.709858 1.4148169 26.520275
3.2601197 18.903803 1.4016755 26.567078
3.474472 -58.785278 1.9421126 25.066999
3.4721932 -54.872551 1.7472632 25
3.4994893 -34.982483 1.6146944 25
3.3804922 -23.778809 1.7916875 26.710852
3.5531125 -18.87216 1.8064097 27.695
3.4097412 -18.765213 1.9185253 28.48675
3.3848157 -9.731411 1.6613958 29.571531
3.3071167 9.9950724 1.7355952 30.12575
3.4568131 10.020458 1.8054661 29.776291
3.5538583 12.93445 1.8485212 29.144876
3.5171607 13.382161 1.7416779 28.04825
3.4039848 18.260374 1.7825322 27.682402
3.5322497 18.619904 1.7147299 28.027302
3.2487421 18.950283 1.621258 28
3.335645 -59.925171 2.0153279 25.055
3.3197498 -38.864178 2.0650494 26.077
3.3950253 -23.772745 2.2098603 27.42325
3.5489964 -18.818834 2.1461048 30
3.4138079 -18.762386 2.1987131 29.170048
3.5746882 -58.779953 2.5390143 25.1045
3.3962362 -23.783543 2.4348707 28.684166
3.4389369 -18.758684 2.511476 29.923637
3.5167942 -75.18354 4.2151065 26
3.3738401 43.435555 5.0621433 27.115749
3.5909262 -75.571587 5.2633538 26.117001
3.485929 -75.631325 5.7672033 27
3.2626064 -75.586311 5.7611737 27
3.3921719 42.384991 5.9670177 29
3.3710594 42.365887 6.1744032 28.695084
3.2740445 42.315075 6.625082 29.083
3.2801619 -75.686333 7.0029063 27
3.36287 -75.522392 6.9996104 27
3.3906462 42.186821 7.0656004 29.927999
3.3797007 -75.650581 7.4787664 28
3.3309736 42.141079 7.4076228 30.0415
3.4461517 42.046753 7.9131856 30.463285
3.4459152 41.906467 8.2156973 30
3.4191437 42.015408 8.0490608 30.5
3.4591513 -75.583549 8.7862167 28
3.3335423 44.241089 8.5039988 31.056833
3.3522682 -75.659927 9.0329523 28.625
3.3547161 -75.482674 8.8319826 28
3.4182279 44.126694 9.0009336 31
3.3935449 -75.627304 9.2220201 29
3.569483 42.682121 9.576395 31.115
3.4134684 44.126621 9.4202337 31.077799
3.3890772 44.160168 9.8295393 31.115749
3.4142418 -75.660957 10.734921 29.714285
3.3284061 -75.551392 10.665724 29
3.3713884 -75.671509 10.978707 29.461538
3.4503241 -75.598785 10.894208 30
3.270175 -70.403671 11.858857 30.149
3.4112356 -75.671036 12.365118 31
3.3831489 -75.48127 12.405658 30
3.5555291 -70.278038 13.173029 31.012501
3.7486184 -49.90731 -1.4894576 22.056
3.8202522 -38.149342 -1.2918428 22.075249
3.7084398 -38.167297 -1.1878712 22.0695
3.9537234 -35.831181 -1.0304093 22.095501
3.7159328 -35.105564 -1.1499978 22.04175
3.6916759 -24.753426 -0.82138801 22
3.8805463 -22.162951 -1.1038462 21.030251
3.6555018 -21.194948 -1.1121217 21.025249
3.8332 -19.609207 -0.90207285 21.051001
3.7812057 -19.508024 -1.145795 21.087999
3.8000562 -19.074024 -0.96618932 21
3.82143 -18.659306 -1.0170951 21.078583
3.6607773 -18.16189 -1.0744247 21.101999
3.9467597 -17.853365 -1.0626372 21.1005
3.8438988 -17.321238 -1.0893713 20
3.7803886 -17.018501 -1.0425758 20
3.8081391 -16.58601 -1.0534931 20
3.8133512 -16.184347 -1.0359634 20
3.6368499 -15.369643 -1.0715076 20
3.8613944 -14.146611 -1.0791698 20
3.7431657 -13.091274 -1.0169582 19
3.8769155 -11.371773 -0.9698953 19.333334
3.7503529 -11.090973 -1.0220867 19
3.7715955 -9.7519703 -0.94535327 18.973684
3.7713444 -9.3421917 -0.93676066 18.9375
3.8759315 -9.0827866 -0.94963199 18.357143
3.7866828 -8.61269 -0.96804023 17.571428
3.7797697 -8.1970119 -0.97286582 17.555555
3.7433712 -7.6943974 -0.95070755 17
3.753176 -7.4094505 -0.941176 16.700001
3.829879 -6.9826312 -0.96865642 16.411764
3.8030372 -6.5538125 -0.94547176 16.700001
3.7906389 -6.225914 -0.93841594 17
3.7599568 -5.8158274 -0.92358762 15.745615
3.7437377 -5.3912272 -0.92759824 15.597222
3.8189263 -5.0105152 -0.93839622 14.756411
3.8242536 -4.5946808 -0.93060213 13.864286
3.7773671 -4.2183332 -0.93177789 13.431579
3.8400614 -3.7778871 -0.92609978 13.971015
3.8226027 -3.4230254 -0.92987698 12.875926
3.7408671 -2.9983158 -0.92164493 12.605951
3.8169911 -2.5910015 -0.91315526 11.724108
3.7758119 -2.2254317 -0.9094376 10.942902
3.7831829 -1.8190513 -0.90348572 9.9824085
3.7769294 -1.4493368 -0.91083783 13.075757
3.7598498 -1.0535239 -0.90199089 12.115385
3.7698278 -0.60719854 -0.90007067 11.746754
3.7857606 -0.19673513 -0.90557146 9.2529774
3.7827394 0.19785576 -0.90025699 9.7263889
3.8113604 0.59606248 -0.89871651 11.683135
3.7819529 1.0053189 -0.90329981 11.111111
3.7767098 1.3570253 -0.89515364 10.586458
3.8256721 1.7949969 -0.89482838 10.977937
3.8090808 2.2081676 -0.88492912 10.942984
3.7862659 2.6049812 -0.88980383 12.704679
3.8416822 2.9755399 -0.8829248 11.610119
3.817858 3.402216 -0.87832564 12.767196
3.7898505 3.8341455 -0.87088186 11.954082
3.8582234 4.1547394 -0.87095988 12.900001
3.8056848 4.6054211 -0.86617422 13.285088
3.7629063 5.0491457 -0.87505585 13.165153
3.8055522 5.3627582 -0.86178249 13.102942
3.7692745 5.8028088 -0.86286575 14.132577
3.8106337 6.229867 -0.85723728 13.1875
3.7653909 6.5943437 -0.8595919 13.025511
3.8267319 6.9672298 -0.84994137 12.789394
3.830616 7.4005756 -0.85382384 15.71746
3.7676854 7.7806706 -0.84089965 15.21875
3.8641174 8.2184343 -0.86112612 16.666666
3.7473087 8.6149607 -0.83687443 15.25
3.7303007 8.9540558 -0.84161049 15.833333
3.8196781 9.4324512 -0.83818907 16.375
3.7252836 9.7590475 -0.85977411 16.5
3.8643463 10.225988 -0.8338244 16.6
3.7459908 10.839026 -0.81408393 17
3.7038348 11.276443 -0.82438731 18
3.8147528 11.852489 -0.85612196 19.5
3.8950367 13.983226 -0.83754909 20
3.7341955 14.125024 -0.80657804 20
3.7538619 15.754475 -0.80764413 20
3.7210734 16.975588 -0.81371242 21.164
3.8177595 18.586054 -0.9067201 21.162001
3.7763178 -43.585907 -0.56692851 23.0765
3.8645217 -39.430393 -0.45165309 23.074499
3.6511748 -35.033642 -0.40831879 23
3.8809683 -23.834196 -0.7152707 22
3.7321932 -19.386175 -0.56883711 22
3.8584237 -19.005707 -0.54503578 22
3.958384 -11.277183 -0.64801943 21.07037
3.8095033 -9.7766056 -0.67550308 20.347792
3.6837428 -9.2414932 -0.63423532 20.537767
3.9288936 -9.0624313 -0.58785379 20.064894
3.8683221 -6.1901984 -0.54580545 19.855333
3.7104337 -5.7484159 -0.60185349 17.927036
3.6870394 -5.4963174 -0.5937565 17.960686
3.6504452 -4.457366 -0.47298902 18.5
3.7398174 -1.3444293 -0.52761221 4.0349998
3.9779108 -1.1303858 -0.64814502 3.25
3.9470217 -0.35449156 -0.59980977 17.566668
3.8890262 3.9328341 -0.71478319 2.125
3.9806035 5.9236221 -0.70306373 11.166667
3.9800351 6.0172415 -0.61904567 11.75
3.9409423 6.5382843 -0.59787399 14.409664
3.7912824 7.425107 -0.55183661 19.756945
3.7556133 7.7724605 -0.54359651 18.835009
3.8392177 8.2346821 -0.50123262 20.833334
3.6580822 8.814517 -0.7809633 19
3.7753017 9.4967785 -0.79637712 16
3.7792916 9.7180338 -0.65775752 16.877777
3.7266071 10.177814 -0.68067598 17
3.9428432 10.912502 -0.76852274 20
3.629132 11.573956 -0.41448623 21
3.7833753 11.848227 -0.56364781 20.395456
3.7899449 13.606339 -0.74321437 19
3.9746411 14.253557 -0.79414845 19
3.7631845 14.621869 -0.77882195 19
3.798553 15.33963 -0.73636872 20
3.672363 16.533516 -0.73146117 20
3.7355733 18.326277 -0.65139431 20.5
3.7131417 18.435505 -0.46173549 21.014
3.7452106 -39.422844 -0.24845822 23.091999
3.6772072 -35.028557 -0.19734798 23.04775
3.6382477 -24.832014 -0.2549606 23
3.6864948 -24.760946 -0.32271737 23
3.8482938 -23.837572 -0.28301936 23
3.9999247 -21.642094 -0.18439703 23
3.7042179 -19.289049 -0.12855987 23.252777
3.8841314 -18.920187 -0.1721992 23.066666
3.9350631 -11.256535 -0.23758642 22.470737
3.9365213 -11.186276 -0.19774842 22.666666
3.7998862 -9.7814703 -0.25349978 22.23522
3.6498675 -9.2689199 -0.2081995 22.458799
3.8233924 -9.0374479 -0.24137485 22.145411
3.9508309 -8.7663527 -0.20808965 22.25
3.9487979 -6.229907 -0.20031218 21.941984
3.7312009 -5.7481608 -0.25352496 21.352077
3.7526071 -5.4717817 -0.21227816 21.619125
3.6457973 -4.4503536 -0.1471487 21.389376
3.7634087 -1.6198537 -0.11626104 20.166666
3.7149229 -1.4258337 -0.21636088 16.124407
3.9710801 -0.98221684 -0.14316928 19
3.6379988 3.8248949 -0.14407311 17.381304
3.7020962 4.1522198 -0.039710712 20.48233
3.972882 6.243907 -0.12904823 20.37352
3.8925626 6.6080909 -0.19139485 20.46813
3.710099 6.8648753 -0.077195615 21.902342
3.7928524 7.4046283 -0.1603556 21.72353
3.6657898 7.7995358 -0.16821457 21.245155
3.9450476 8.2979717 -0.19263147 22
3.7519066 9.0268707 -0.20119117 21.6175
3.7489476 9.7251577 -0.1189312 21.5075
3.6076791 11.519232 -0.10680321 22
3.7912376 11.873731 -0.23889555 21.718966
3.6164584 13.519485 -0.21535616 22.179001
3.7250333 13.681632 -0.18327931 22.006001
3.6707242 18.379316 -0.20694458 22.021
3.751806 18.431328 -0.19339092 22
3.7659442 -43.592663 0.39543098 24.0765
3.8519931 -39.417599 0.39861205 24.074499
3.7472372 -35.115795 0.35579365 24
3.6813633 -24.768885 0.17599458 24
3.8122301 -23.845118 0.15863667 23.9
3.6580446 -19.245949 0.11339659 24
3.9249396 -18.966719 0.13412441 24
3.779901 -9.7820101 0.15988114 24.014002
3.6393137 -9.303565 0.080154158 23.865
3.7650931 -8.9843683 0.17977512 24.592079
3.9169593 -8.7305346 0.19114174 25.077587
3.8217547 -8.196681 0.10369936 24.512001
3.8073535 -6.6376896 0.028524352 23.135
3.9145477 -6.2172198 0.19454223 25.001032
3.8436923 -5.6728368 0.19573388 25.672089
3.7097964 -5.4683685 0.15796967 25.314186
3.6242063 -4.2862368 0.20027463 24.5
3.7784269 -1.6409161 0.020245383 25.002501
3.7471747 -1.4283977 0.091670282 27.917727
3.9664798 -0.17946197 0.26369223 25.5
3.6460116 3.7290711 0.2064455 28.918655
3.710175 4.171515 0.17183651 28.434256
3.9538703 5.8967762 0.29675484 27.733332
3.9078004 6.2033615 0.23024239 26.383219
3.8985391 6.6667447 0.23341051 24.359644
3.726336 6.9267035 0.16629571 23.950705
3.7756929 7.3822403 0.21311276 23.685917
3.7199638 7.8020124 0.21725318 24.186451
3.6705778 8.068305 0.19270469 24.270363
3.7209852 9.7806931 0.19600774 24.268545
3.7105291 11.4559 0.35821062 23.606001
3.7526624 11.88611 0.091819488 23.060911
3.6916168 12.339698 0.25989157 24.055
3.8294914 12.470979 0.10448023 23.162001
3.9281411 13.171464 0.32661578 24
3.719517 13.305351 0.33679342 24.099714
3.7153804 18.538925 0.18305513 23.298304
3.7555282 -39.422478 0.54969871 24.083666
3.7468581 -35.108631 0.53147352 24.029749
3.7076945 -24.812946 0.75363058 25.077
3.6734738 -24.751268 0.67817467 25
3.8127973 -23.839279 0.6346513 24.734583
3.6049135 -22.590406 0.53065908 24.0495
3.8975163 -19.001625 0.47960746 25
3.8409553 -17.881737 0.50800127 25.0655
3.7770901 -9.7808838 0.58789009 25.911173
3.6851676 -9.2414761 0.61613244 26.501467
3.8291941 -9.0240078 0.55772215 26.895712
3.7024221 -8.189724 0.68585312 28.023251
3.7321796 -7.9828696 0.42085499 26.5
3.9813209 -6.2508578 0.65595502 30.5
3.6819782 -5.7201157 0.53770536 28.273417
3.7289591 -5.5222907 0.50541282 28.198734
3.6186836 -4.4086814 0.76622742 29.5
3.6615629 -4.3542161 0.53689229 27.528999
3.9915783 -0.26580244 0.54100496 28.075001
3.9694071 5.8657823 0.48425841 31.011875
3.9595191 6.2546911 0.45279345 30.904886
3.9142005 6.6209774 0.53509521 27.362625
3.7980518 6.980299 0.65814912 27.050833
3.8066878 7.3789077 0.61583298 25.624022
3.7609665 7.7753806 0.56375974 26.61401
3.6348538 8.0124979 0.5198198 27.007
3.8192112 9.8415251 0.63440925 27.988644
3.6665449 12.713351 0.62317222 25.122499
3.9335394 13.153999 0.63349909 24.949299
3.7218437 13.32158 0.60326505 24.888878
3.6099305 18.343616 0.66224849 25
3.7459595 18.498814 0.55533081 24.345301
3.7872994 -43.595032 0.81849599 24.101
3.8717613 -39.423946 0.85039645 24.105999
3.7725368 -35.051197 1.1359361 25
3.7998805 -23.792202 1.0712025 25.389193
3.7926817 -9.7809114 0.98960489 27.885298
3.7499247 -9.2160769 0.80964983 27
3.8655195 -9.1170464 0.82698441 28.03475
3.6198659 -4.4353175 0.94322807 31
3.6682372 7.4649796 0.82528943 27
3.9086881 13.157628 1.0318285 26.393044
3.6949298 13.344541 1.0370045 26.590864
3.7603385 13.617982 1.0410912 27.51125
3.6456139 18.345604 0.94986516 26
3.7632015 18.465664 1.0170112 25.666199
3.7401493 -35.036346 1.3789783 25.054802
3.7562113 -23.698034 1.4870061 26.681084
3.7881033 -9.7786369 1.372422 28.601837
3.9184446 13.135259 1.4659878 27.596716
3.706892 13.327848 1.4166436 27.908674
3.8121107 13.780406 1.3803945 28.0895
3.7186658 18.5574 1.3848838 26.718073
3.74863 -23.742214 1.7547675 26.866667
3.892103 -18.91573 1.8279101 28.0336
3.753072 -18.788761 1.9330175 29.032249
3.7921715 -9.7713861 1.6645477 29.40909
3.8027472 10.073467 1.7929378 29.92009
3.9079413 13.11386 1.7827749 29.407295
3.6929381 13.340588 1.7402992 28.825478
3.9064543 13.924336 1.8636675 29.173
3.9048598 18.35033 1.8762205 28.203711
3.7754426 18.49258 1.7742009 27.949926
3.7099657 -38.909245 2.0761335 26.074499
3.7986109 -23.835344 2.1595824 27.560112
3.820487 -18.825159 2.1644948 29.039135
3.747534 -18.790064 2.2246764 29.286777
3.6887033 -56.124371 2.5675156 25.118
3.7161331 -23.830795 2.4465046 29
3.784193 -18.8234 2.5104516 30.868214
3.7673135 -18.77466 2.5830507 29.694418
3.6424756 -57.679539 3.0687625 26.044001
3.7716022 -56.863548 3.0238872 26.036501
3.9332492 44.132561 3.9978528 26.128
3.8315411 -75.209236 4.2216039 26
3.695482 43.89035 4.0010033 26.115
3.6875231 43.874626 5.1458735 27.115
3.7354267 -75.623581 5.8502011 27
3.6322649 -75.597389 5.837357 27
3.7755029 42.349514 5.9634027 29
3.8497658 42.430191 5.7452369 28.039167
3.8112395 42.32785 6.1489925 28.455429
3.6461232 42.250324 6.735909 29.057751
3.8295293 -75.51329 7.0519047 27
3.7895949 42.135559 7.1144223 29.4163
3.7492883 -75.676758 7.5127273 28
3.786639 42.084427 7.5096488 30.027582
3.7889311 42.030769 7.8437648 30.387415
3.8586392 41.922112 8.2127352 30
3.7244718 42.002453 8.0490847 31
3.9221892 41.881149 8.521637 31
3.7915535 44.164066 8.5655556 30.563999
3.8163409 -75.685753 8.9550581 28.299999
3.7678676 -75.545273 8.8410311 28
3.8341625 44.086182 8.994544 31
3.7321768 -75.675667 9.234211 29
3.8677142 44.084988 9.4329662 31.073166
3.9067197 44.107506 9.8507147 31
3.7542632 -75.654648 10.728027 29.299999
3.7651527 -75.494438 10.617692 29
3.7823319 -75.727585 10.960259 29.555555
3.7414067 -70.165474 11.492623 31.035999
3.7329099 -58.101692 11.400253 31.1465
3.8432693 -70.529457 11.746705 31.0665
3.6349375 -70.174591 11.772627 30.152
3.7977676 -69.175842 11.649885 30.1465
3.8658051 -57.413906 11.639189 31.1465
3.7983663 -70.419662 12.179829 30.112499
3.7629006 -75.504196 12.412255 30
3.692168 -70.277504 13.248549 31.04575
3.6476829 -67.795959 13.217066 31.104
4.1859994 -49.953773 -1.6209462 22.112499
4.3186255 -49.915695 -1.5837859 22.115499
4.1726279 -38.162807 -1.1595743 22.067501
4.3063335 -23.886936 -1.1316612 21
4.1769433 -22.072475 -1.0992875 21.03075
4.3021312 -21.645842 -1.026786 21
4.3016324 -21.482069 -1.0144494 21.055
4.0943084 -19.363626 -1.1438534 21.088499
4.1217222 -18.969048 -0.92047924 21
4.2104683 -18.60844 -1.0911684 21.062
4.298717 -18.317398 -1.0745809 21.091499
4.2162189 -17.643406 -1.061726 21.103001
4.2342286 -17.593061 -1.052462 21.099001
4.2810173 -17.075081 -1.064304 20
4.2165918 -16.672407 -1.0268971 20
4.1949129 -16.18136 -1.0421531 20
4.164413 -15.002689 -1.0660778 20
4.1084538 -13.035899 -0.9989261 19
4.2816801 -12.560168 -0.90502423 19.8423
4.1299701 -12.10711 -0.97887218 19.4
4.0792313 -11.817825 -0.93386573 19.8885
4.0081301 -11.589823 -0.98631251 19
4.1806512 -9.7956619 -0.92643791 19.207973
4.1894999 -9.3798847 -0.95813102 18.727272
4.1720672 -9.0188684 -0.94825798 18.571428
4.1709452 -8.6308823 -0.94179755 17.871796
4.1660366 -8.2276678 -0.98992425 17.75
4.229085 -7.8243542 -0.95784724 17
4.2296357 -7.442142 -0.92551363 17.111111
4.213995 -7.0328693 -0.94607812 16.428572
4.223073 -6.5874596 -0.9316138 17.23077
4.1662536 -6.194303 -0.91520327 16.419643
4.1773071 -5.8085079 -0.94181657 15.616667
4.1725945 -5.3707113 -0.94753295 14.72549
4.2029929 -4.9947004 -0.92725754 14.8375
4.2116814 -4.596333 -0.93783945 13.925438
4.1492534 -4.1769643 -0.93732977 13.86508
4.1879992 -3.7605274 -0.92742175 13.323914
4.1864624 -3.4211395 -0.92148435 11.416667
4.1990595 -2.985059 -0.90988141 13.630834
4.2105165 -2.6066844 -0.89988017 11.266668
4.1887078 -2.1647737 -0.90885067 9.9030256
4.2046413 -1.7740659 -0.9054783 12.291666
4.1980882 -1.3902205 -0.90351588 12.265833
4.1789417 -1.0249155 -0.89933771 11.815385
4.1749868 -0.59453982 -0.90437746 11.030026
4.2263827 -0.21590798 -0.88688028 9.3149118
4.1187949 0.12860948 -0.90095061 10.943589
4.1965985 0.64046341 -0.89206743 9.9440975
4.2000656 1.0002248 -0.89234781 10.824074
4.1735153 1.4060833 -0.89414263 9.810545
4.2255721 1.836688 -0.88869935 9.1369047
4.2173724 2.1936905 -0.89156997 11.674306
4.1812601 2.6900537 -0.87778252 12.545981
4.2205658 3.0306356 -0.87123162 10.583333
4.1750035 3.4089742 -0.87490875 11.826923
4.1844025 3.8319485 -0.87078637 14.6375
4.1877666 4.1807265 -0.86917919 13.490742
4.2285266 4.6401634 -0.86685544 13.151667
4.2057071 5.0198007 -0.86401677 13.642859
4.2214789 5.360374 -0.86446601 13.188095
4.1719398 5.8088117 -0.86513907 13.984211
4.201973 6.2380919 -0.84719527 11.480555
4.2109137 6.5781579 -0.83182901 14.054876
4.1545858 6.9664469 -0.85403776 14.333333
4.1986871 7.3810205 -0.85522419 15.75
4.1499615 7.8073311 -0.83041787 15.2
4.1228189 8.1640177 -0.82882643 15.24074
4.1141958 8.5926886 -0.83250082 16.75
4.1804986 9.0620117 -0.84479642 16.25
4.1930943 9.4639502 -0.84073448 17
4.3024297 9.8636293 -0.83624816 17.333334
4.0651898 10.196457 -0.83312815 16
4.1705003 10.427123 -0.80155128 17
4.3398538 11.157337 -0.83309519 17
4.1103678 11.266365 -0.83373433 17
4.1154995 12.038297 -0.80252123 18
4.324008 12.849779 -0.82901478 20
4.0225854 13.948097 -0.81416887 20
4.3053246 16.660311 -0.81502455 21.163
4.007369 16.810909 -0.81386244 21.1635
4.2324486 18.72508 -0.88628453 21.158251
4.1412125 -39.453938 -0.47997439 23.075249
4.2538004 -38.581844 -0.44682994 23.077999
4.2160211 -23.886292 -0.65412438 22
4.284605 -21.619759 -0.60155863 22
4.2162867 -21.587486 -0.51001608 22.050501
4.218235 -21.076466 -0.63770664 22
4.3940816 -19.252512 -0.57323444 22
4.1131988 -19.024136 -0.56323665 22.005701
4.3715739 -12.820683 -0.53650993 21.051001
4.2485185 -12.595655 -0.62610394 20.5
4.2076135 -12.167231 -0.63552356 20.840054
4.1042457 -11.805951 -0.61132193 21.242987
4.0296011 -11.477106 -0.6480993 21.090399
4.0774713 -11.188237 -0.60670537 21.066
4.199491 -9.8139086 -0.63158101 20.441154
4.3734884 -9.3830776 -0.6890738 19.7995
4.1313663 -8.9868784 -0.63478094 19.978743
4.2192726 -8.6750488 -0.62111568 19.8533
4.3588042 -8.204793 -0.61849374 19.781519
4.3922381 -7.835938 -0.60854882 19.333334
4.1904335 -6.1654291 -0.59865093 18.716518
4.1664672 -5.9548421 -0.55619621 19.222221
4.3992081 -1.3493747 -0.59677255 14
4.2279258 -1.1158456 -0.50207806 8.2853537
4.281652 -0.22028032 -0.58753395 17.557142
4.2604327 0.73607254 -0.63050187 7.9555554
4.0355268 5.8620791 -0.54303479 14.234126
4.256516 6.3658967 -0.5615617 17.297394
4.195766 6.5850267 -0.59320146 16.729452
4.2161374 6.8720775 -0.53007352 19.333334
4.1814756 7.4078932 -0.52897513 21.122749
4.1896853 7.880959 -0.57817394 17.996992
4.1462083 8.1707764 -0.5782479 18.650574
4.1892219 8.6105738 -0.67056495 17.615385
4.2181463 10.271322 -0.78533196 17
4.3802719 10.624418 -0.53541589 19.039999
4.3768244 11.588574 -0.78619277 18
4.231698 11.805976 -0.79476798 18
4.0656123 12.084662 -0.52780217 20.018333
4.3560557 12.867032 -0.59561753 20
4.254436 14.179882 -0.53080648 21.069799
4.3356276 14.474166 -0.46284887 21.0065
4.25249 14.93745 -0.73696887 20
4.0979857 16.262705 -0.73436123 20
4.3748455 17.860296 -0.76747233 20
4.1177673 18.055052 -0.74892914 20
4.2916942 -39.454174 -0.35694391 23.065001
4.2618346 -38.566334 -0.16888548 23.1005
4.2160835 -23.823267 -0.27704647 23
4.3683581 -21.604761 -0.15726715 23.08
4.1039853 -21.553625 -0.123601 23.051125
4.2898049 -21.06687 -0.19703318 23.051357
4.1629853 -19.015421 -0.15956131 23.125
4.3008127 -12.80582 -0.32245663 22
4.2302628 -12.423433 -0.10566222 23.025749
4.1674166 -12.192252 -0.19715615 22.573792
4.0918617 -11.781178 -0.18214589 22.685511
4.0369849 -11.491049 -0.1829358 22.712875
4.1003146 -11.183521 -0.2175294 22.587749
4.2206593 -9.8238964 -0.24378303 22.251986
4.126852 -8.9156809 -0.19636421 22.341427
4.0743961 -8.7701483 -0.21939237 22.163214
4.0257983 -6.4215016 -0.19125448 22.585499
4.0983534 -6.1348591 -0.24808767 21.455261
4.2244134 -5.9379153 -0.262824 21.770317
4.1602197 -5.4154882 -0.049318992 23
4.2582312 -1.2774397 -0.19308916 20.25
4.2564449 -1.0493354 -0.16381434 18.56863
4.0287304 -0.68075526 -0.23745865 21.15
4.179245 -0.22032642 -0.1656312 21.477335
4.3331428 1.0362123 -0.18767305 17.094866
4.3525872 3.4667728 -0.12924853 17.905237
4.1138678 5.8401361 -0.13545634 20.567005
4.2961493 6.3349166 -0.18280502 20.970835
4.1654768 6.6385727 -0.16384505 21.180906
4.1978135 6.862071 -0.20938864 21.044512
4.0222588 7.4677529 -0.13215798 22.412334
4.2237105 7.8736405 -0.21777749 20.858986
4.2332406 8.1102314 -0.27707359 20.689472
4.0704155 9.7237568 -0.11612103 21.586
4.3682437 10.60368 -0.16884705 21.475334
4.3938236 11.540474 -0.23764077 21.0495
4.089385 12.106031 -0.15235126 21.80661
4.3631668 12.861543 -0.18224479 21.833334
4.2556648 14.20751 -0.19295874 22.11425
4.1310549 -39.450726 0.37721264 24.075249
4.2396908 -23.882568 0.15436171 23.75
4.182447 -21.444147 0.21882898 23.917187
4.2964578 -21.102356 0.18718274 23.772375
4.2935886 -19.206995 0.12362317 24
4.0830216 -18.923506 0.14008179 24
4.2122288 -9.8239212 0.14616442 23.896118
4.0182724 -9.2035866 0.036767896 24.04425
4.2488084 -8.9493217 0.18894352 25.031
4.0477805 -8.6782484 0.18646324 25.080786
4.2570596 -6.4316278 0.24438202 25.082167
4.1958537 -6.1226583 0.16165 25.184406
4.2219176 -5.9464169 0.18084356 25.051308
4.1409407 -5.4516349 0.060725786 24.188604
4.2289944 -1.2614404 0.10343626 28.248756
4.1932716 -0.95361716 0.12358505 27.320847
4.1825619 -0.22383808 0.15161534 24.442001
4.3036399 1.0915251 0.1513786 27.366083
4.2985969 3.4534695 0.16586702 28.017731
4.3325582 3.6409342 0.18225177 28.919952
4.3407207 5.5810957 0.18441993 25.008499
4.165061 5.8148737 0.20304281 25.412432
4.1204062 6.2011566 0.23712552 25.958887
4.2028103 6.6568522 0.21234819 24.105459
4.1481023 6.8404145 0.22438176 24.755873
4.0343552 7.4008689 0.021973561 23.158001
4.1854463 7.8238521 0.11794733 23.3965
4.2566333 8.0203695 0.2101033 23.798332
4.0343981 9.7747011 0.28888357 25.022251
4.388032 10.179379 0.070533074 23.046749
4.3653522 10.519545 0.055600639 23.063814
4.1001382 11.899466 0.10964598 23.313751
4.2161136 12.131232 0.14572452 23.435902
4.1582508 12.55895 0.19321936 23.628
4.2182908 12.936419 0.29617506 23.870211
4.2622313 14.209658 0.23272763 23.612167
4.3454723 14.484581 0.183938 23.5065
4.3571739 -55.692108 0.60395563 24.0445
4.3413348 -39.487835 0.77648592 24.098499
4.2344856 -23.878473 0.64463818 24.625
4.2401028 -21.61088 0.57460654 24.718666
4.2071366 -21.57099 0.55783701 24.555748
4.2980728 -21.108538 0.49971017 24
4.1055517 -19.243254 0.50477457 25.043501
4.0432496 -18.99831 0.46583328 25
4.1996093 -9.8139315 0.56681472 25.712801
4.0504127 -8.9294367 0.62439144 28.190353
4.1382208 -6.5639172 0.61917025 25.119499
4.1551943 -6.1434917 0.55558366 28.202976
4.2413373 -5.9765358 0.40130681 26.5
4.3913608 -0.88936698 0.67657125 29.5
4.1007004 -0.29559141 0.61267483 28.644722
4.2395349 5.7749705 0.50007099 29.137196
4.0659804 6.278223 0.46733871 29.757721
4.1859078 6.6784439 0.57253218 26.262381
4.2552471 6.8563447 0.64803761 28.034081
4.0695615 7.4763331 0.57927072 25.159801
4.1578331 7.7848392 0.70126456 25.310177
4.0932536 8.0297947 0.77230287 25.114
4.0503492 9.8488903 0.41236326 26
4.094481 11.806421 0.61403853 25.452667
4.2943287 12.229786 0.60294652 24.570999
4.1979246 12.947489 0.6194973 24.767212
4.2586975 14.212501 0.65163761 24.981125
4.3129921 19.745787 0.74023712 25.047501
4.0731659 -39.360401 0.8564797 24.116501
4.2218747 -35.078388 1.1477567 25.039249
4.1715155 -23.813053 1.1402189 25.508835
4.2114801 -9.8174562 0.99123758 27.959082
4.1635723 6.6861653 0.85757458 27.178251
4.2493463 6.8547201 0.87447333 28.275951
4.3078299 7.9743328 0.82780528 26.121124
4.2551603 8.0341396 0.82819384 25.139
4.3870063 12.770154 1.1186798 25.666666
4.1689334 12.967912 1.0316145 26.38567
4.2440133 14.201659 1.0146933 26.251348
4.3185525 19.758097 1.0643243 26.047501
4.2383614 -35.026974 1.4334846 25.0625
4.2525039 -23.753235 1.3701216 26.19541
4.2059278 -9.8143635 1.3815559 28.83453
4.3483825 12.7834 1.4800961 28.625
4.196734 12.933496 1.473051 27.828688
4.1903582 14.216837 1.4157159 27.652857
4.2038603 14.523918 1.5968034 27.16325
4.0741572 18.265839 1.5732046 26.720499
4.3118296 19.737146 1.3866763 27.047501
4.2003422 -23.7456 1.7389194 26.410603
4.1622052 -18.906776 1.8915612 28.174158
4.1674008 -9.8067694 1.6678163 29.53274
4.1883712 10.131895 1.7935189 29.773027
4.351512 12.775558 1.782939 29.030355
4.1634712 12.940883 1.7602633 28.754511
4.1454673 14.161278 1.7837234 29.071003
4.2071962 14.528226 1.7452929 29.347353
4.0430336 18.259386 1.8504126 28.432598
4.3436456 25.8577 1.8463969 26.122999
4.3646307 -38.950146 2.0948944 26.075001
4.1855445 -23.865597 2.1498652 27.666666
4.2142992 -18.859243 2.2116022 28.983639
4.165309 -23.879311 2.457042 29
4.1707754 -18.834845 2.5782328 29.853821
4.3386784 12.058233 2.7761321 30.129
4.2556982 -55.757877 3.0119588 26.053749
4.3905587 44.075531 3.9781513 26.121
4.2409153 -75.256462 4.2310266 26
4.3814988 44.076405 5.140142 27.121
4.1947517 -75.662277 5.8680601 27
4.3824067 42.369743 5.7929525 28.056
4.2170534 42.2868 6.1565681 28.333334
4.1430855 42.235176 6.6737313 29.055166
4.136138 -75.718498 6.9920554 27
4.1206985 42.118069 7.0642767 29.579144
4.2070889 -75.716957 7.4967799 28
4.2208018 42.064121 7.3699999 29.799999
4.1970363 41.968773 7.9305086 30.278875
4.1491933 42.021629 7.756391 30
4.1696062 41.900826 8.20473 30.142857
4.155251 44.136417 8.5527868 31.084999
4.2465529 -75.730461 9.0007687 28.5
4.0239401 -75.59523 8.8467522 28
4.1913261 44.04842 8.9890013 31
4.2078876 -75.729301 9.2505693 29
4.1809125 44.03994 9.4537296 31.0385
4.1690593 44.065914 9.8418627 31
4.153389 -75.698334 10.73032 29.4
4.1978941 -75.560898 10.630188 29
4.1891265 -75.77449 10.974617 29.642857
4.2874575 -69.600449 11.550606 30.1635
4.0094442 -70.367676 11.870061 30.104
4.2463484 -73.542389 12.093715 30.047501
4.2230792 -75.723915 12.473097 31
4.2617402 -75.535179 12.421509 30
4.5369062 -39.462673 -1.302098 22.075001
4.7115431 -37.991428 -1.3082404 22.081499
4.49891 -23.911488 -1.133683 21
4.4985766 -22.98918 -1.0784162 21.050501
4.584229 -21.521809 -1.0797178 21.0665
4.6247993 -21.070341 -1.1546097 21.028166
4.4002953 -19.211897 -1.1416761 21.089001
4.5294385 -19.040104 -0.86494404 21
4.5538783 -18.564196 -1.097306 21.04775
4.6145577 -18.170664 -1.0737263 21.091999
4.6225185 -17.565216 -1.0623271 21.101501
4.6990166 -16.903971 -1.0663853 20
4.6160278 -16.499378 -1.0239632 20
4.4271765 -16.137691 -1.0615447 20
4.7437453 -15.80522 -1.0311568 20
4.4477267 -14.755254 -1.0606823 20
4.4644527 -13.433113 -1.019715 19
4.4731951 -9.8285017 -0.89491433 19.285715
4.6504002 -9.3534565 -0.93430489 18.933332
4.6828389 -8.9942999 -0.96284878 18.5
4.5615144 -8.644124 -0.95150971 18
4.5353575 -8.2699118 -0.97965574 18.142857
4.5821147 -7.7365837 -0.96059656 17.25
4.5993886 -7.363625 -0.94492686 17.933332
4.6289597 -6.9679341 -0.96181285 17
4.6663494 -6.569593 -0.94546509 16.4
4.5651913 -6.1262665 -0.93701893 16.049021
4.5367851 -5.8035903 -0.92119473 17
4.5953889 -5.4383707 -0.96002626 15
4.6530008 -5.0151038 -0.93748963 14.77381
4.5815115 -4.5974178 -0.91828579 15.180556
4.6547365 -4.2148938 -0.92323381 14.215686
4.6164165 -3.7469716 -0.92059934 13.306668
4.6006708 -3.3998652 -0.92267483 13.097077
4.6137857 -2.9396966 -0.91544288 13.989583
4.567987 -2.5843267 -0.9235757 11.977311
4.6107597 -2.1876984 -0.90197355 12.181481
4.5964823 -1.8193265 -0.90312666 11.550833
4.5753193 -1.4112445 -0.89896595 12.5875
4.6311598 -1.0187997 -0.88203591 11.900001
4.6023722 -0.59156799 -0.87946677 12.042491
4.6185279 -0.23370475 -0.89935082 10.37807
4.6139064 0.22025961 -0.89929885 11.471465
4.6165767 0.6042456 -0.89775777 9.2205887
4.6155024 0.98611087 -0.89335811 10.325537
4.5767198 1.4193566 -0.89242357 11.421568
4.6311555 1.8133231 -0.89121121 10.33
4.5603747 2.1794691 -0.88404971 11.605952
4.5942535 2.6005993 -0.8843767 13.143518
4.6215391 2.9808581 -0.87659496 11.063227
4.5586777 3.4017739 -0.87278253 13.266665
4.6235056 3.7699747 -0.86581731 13.188988
4.5687623 4.2088118 -0.86288124 13.825001
4.665452 4.6561751 -0.87556452 12.297223
4.5749846 5.0041413 -0.85299522 15.353125
4.6305456 5.4119592 -0.87076479 13.76
4.6024346 5.8116693 -0.85376257 14.222222
4.5687237 6.1626062 -0.85560375 12.519344
4.5955143 6.5630593 -0.83721918 15.646826
4.6135359 6.973918 -0.84691596 14.716667
4.5890932 7.427721 -0.8505457 14.5
4.6350098 7.7547269 -0.82724237 14.5
4.4494314 8.9451437 -0.82979017 17.666666
4.6013789 9.3749304 -0.83199579 17.333334
4.5426459 9.8199921 -0.81858373 17
4.4656205 10.972034 -0.81943864 17
4.5203319 12.312441 -0.83283603 20
4.5033345 12.589664 -0.83034176 18
4.7292924 16.398539 -0.81555504 21.162251
4.5051093 18.3016 -0.90978533 21.160999
4.5331602 19.369946 -0.85454303 21.16275
4.700129 -36.686481 -0.45988205 23.078501
4.4783778 -23.913559 -0.5947606 22
4.6343398 -21.636477 -0.5851897 22.063751
4.5637274 -21.595251 -0.6940977 22.081499
4.593112 -21.05829 -0.65534908 22.025999
4.4597912 -19.045511 -0.52015555 22
4.651803 -12.059583 -0.46718767 22.097
4.6001301 -9.8342571 -0.55669892 20.796379
4.5741296 -9.3494873 -0.61962086 21.062199
4.5377021 -9.0368843 -0.53664047 20.935558
4.4746299 -7.7822804 -0.600582 19.621426
4.6250582 -7.4426088 -0.55258036 20.365364
4.449007 -6.063777 -0.53523237 19.571428
4.7611122 -1.3991289 -0.54896522 15
4.5842395 -0.94006091 -0.57789397 12.8
4.5119257 -0.76520616 -0.56515425 17.452381
4.4510174 1.0273316 -0.6316238 5.0069447
4.7718596 2.5854182 -0.50652266 3.6636364
4.4751115 3.4919066 -0.65777969 3
4.482388 3.7033005 -0.55581588 4.3455987
4.4867883 5.5860286 -0.63943464 15
4.4608097 5.6285338 -0.48552841 16.777779
4.5624342 6.6071715 -0.58206534 18.333591
4.7659812 6.8164816 -0.56621009 19.276501
4.7809572 7.5055933 -0.67103094 16.716667
4.540102 7.8141193 -0.58443725 17.361111
4.7680707 8.3869486 -0.64802152 16
4.6733112 8.5213127 -0.55598187 19.47695
4.7431946 9.5167933 -0.79571569 17
4.5907836 9.8351336 -0.55855453 19.226685
4.4977107 10.210557 -0.57337373 18.73818
4.4340053 10.521669 -0.6103552 18.4375
4.4896979 11.701492 -0.62357503 19
4.5499148 12.682999 -0.61205703 20.08873
4.452991 14.590109 -0.73016995 20
4.5836763 15.893675 -0.73646647 20
4.5825715 17.788176 -0.74041492 20
4.4975123 -23.946918 -0.23991942 23
4.5612321 -21.086418 -0.19094172 23.045792
4.5094299 -19.098227 -0.078940719 23.333334
4.5976129 -9.8513212 -0.23364019 22.32723
4.5549049 -7.674583 -0.24183042 22.280626
4.5769839 -7.5299921 -0.23520964 21.757492
4.4606071 -6.0433879 -0.21041641 22.086166
4.4446945 -5.9823446 -0.3240155 21.571428
4.7891722 -1.6661023 -0.36998001 18
4.7379174 -1.2530692 -0.26244086 18.875
4.5394435 -0.99801606 -0.17377758 20.525259
4.5762186 -0.6674934 -0.17074582 20.266668
4.4707212 0.97120893 -0.25059062 15.375125
4.7525201 2.3794887 -0.016788233 21.837
4.7605729 2.4931598 -0.19450265 15.199074
4.439919 3.5822697 -0.23065528 14.5
4.4903626 3.718266 -0.11517606 18.292305
4.4242735 5.6317196 -0.29714927 19
4.4018011 6.3656645 -0.18686935 20.454546
4.6121297 6.5798445 -0.17761558 21.209557
4.6660614 6.8156157 -0.27664149 20.333334
4.7797637 7.5455303 -0.16764928 20.962999
4.5473866 7.9029546 -0.14093007 21.336416
4.749229 8.2233582 -0.16965777 21.972725
4.7137051 8.470808 -0.17732979 21.704548
4.5674467 9.845892 -0.18142737 21.586132
4.5150981 10.173244 -0.15838149 21.563341
4.4306674 10.534219 -0.15213899 21.895857
4.4469953 11.557339 -0.24547556 21.048626
4.5204368 12.710631 -0.17889456 21.612244
4.4844007 -23.918814 0.15834384 23.666666
4.732676 -21.609001 0.38089675 24.0935
4.554564 -21.088829 0.19036621 23.880375
4.5407586 -19.294405 0.092644215 23.859833
4.5058789 -19.013956 0.16320822 24
4.6024208 -9.8503561 0.19190119 24.269741
4.6050649 -7.6517239 0.1773348 23.833334
4.6143446 -7.5453181 0.1203111 23.530111
4.4692616 -6.0818291 0.21187383 25.441467
4.4444575 -5.971972 0.17424755 25.199999
4.7687221 -1.2296299 0.0034737119 23
4.582448 -1.031186 0.17359924 25.522951
4.5237041 -0.756841 0.25533426 25.549999
4.5735483 0.9769721 0.22379833 29.059057
4.7354541 2.3911667 0.15484883 27.671478
4.7738495 2.4810159 0.13922603 27.302237
4.4699578 3.7246344 0.16108932 27.851856
4.4889812 5.5630627 0.31590673 26.50425
4.5092053 6.6942177 0.20254922 24.210789
4.5731649 6.8912644 0.19663674 24.298746
4.7640629 7.3800392 0.051912561 23.137787
4.6088781 7.8892865 0.05220649 23.057907
4.7268834 8.164012 0.044751208 23.148281
4.677433 8.4586096 0.042374838 23.0151
4.5984654 8.9492788 0.32369134 24.078001
4.6119423 9.8641291 0.12384541 23.532219
4.6005368 10.189476 0.11278074 23.415508
4.6892395 10.542848 0.26414073 23.953989
4.6130443 12.643349 0.27982911 23.836641
4.548677 12.852594 0.2047158 23.405832
4.4348226 -39.451881 0.55903995 24.084999
4.4795685 -23.91201 0.66241473 24.703808
4.600563 -21.62108 0.57702464 24.671299
4.5675101 -21.113085 0.51177001 24.025749
4.6109672 -9.8512516 0.60793781 26.179674
4.4683356 -6.0943546 0.54980952 28.260124
4.5375433 -0.98769873 0.53227997 29.688852
4.5386119 -0.74083906 0.45245901 27.5
4.5092049 5.5726752 0.44238019 28
4.5024042 5.6871071 0.6982708 31.018
4.4716153 6.7295542 0.52147502 26.217201
4.5104384 6.8581195 0.57589567 26.87055
4.4456477 7.3037643 0.69710177 25.102501
4.5543404 9.0204277 0.62269592 25.372499
4.7830763 9.870923 0.43137532 25.07625
4.7836843 10.032825 0.45514917 26.0385
4.7866716 10.621315 0.60379034 25.498781
4.6199794 12.626881 0.63361984 25.119131
4.5960226 29.482796 0.72550684 24.122999
4.6208072 -39.485722 0.8967514 24.099001
4.5872674 -23.852236 1.1096362 25.540001
4.589777 -9.8463202 1.0006834 28.156168
4.5064473 -0.85551512 0.83156097 31.04125
4.418272 6.9402208 0.8844654 28.119249
4.780014 10.23929 1.1641599 28.387167
4.7746449 10.625078 1.0047415 27.364183
4.6075745 12.6275 1.04553 26.439199
4.4117608 12.811568 1.0362039 25
4.4515681 -35.094444 1.3262891 25.085999
4.6128278 -23.771843 1.3641347 26.086851
4.5806818 -9.8397694 1.3657713 29.224144
4.7727857 10.260392 1.3778981 29.030376
4.7716484 10.60795 1.4019016 28.347452
4.5913343 12.628756 1.4788127 28.020288
4.5936394 29.478432 1.4157385 25.122999
4.617918 -23.801825 1.7467811 26.65271
4.5975618 -18.932606 1.899166 28.655018
4.6036592 -9.8372068 1.6980722 29.59129
4.7985888 9.9838991 1.7721158 28
4.6450448 10.180809 1.7926837 29.15114
4.7656751 10.620389 1.7423868 28.702909
4.7209477 11.014555 1.806597 28.643682
4.6653013 11.4431 1.7853665 28.000937
4.6136184 11.808928 1.8646975 29.006998
4.5698433 12.206193 1.8709049 28.795328
4.5658088 12.581001 1.8197974 28.883102
4.413249 12.853848 1.9682584 27
4.579062 -23.911583 2.1775243 27.705883
4.6018782 -18.895721 2.2359414 29.118954
4.7901888 9.8489962 2.3223705 29.9
4.7730389 10.27096 2.162945 29.603714
4.7586336 10.575577 2.1811447 29.563715
4.7026124 11.004252 2.1871631 29.764486
4.6597719 11.429055 2.2447588 29.17565
4.616713 11.826807 2.2701552 29.651402
4.5586958 12.173972 2.2567625 29.580027
4.5272346 12.556707 2.2785361 29.823465
4.4238787 -55.634766 2.410615 25.1
4.6430888 -23.921963 2.4849029 29
4.5423627 -18.892033 2.4706476 28.1005
4.6791272 9.5461025 2.7327561 30
4.7760816 9.895812 2.5198059 30.038
4.7432141 10.234671 2.5662696 30.039083
4.7365499 10.590217 2.5939634 29.965334
4.6883054 11.020094 2.5751271 30.120893
4.6426058 11.400396 2.5687718 30.144253
4.5616531 11.880096 2.6525328 29.924934
4.5511537 12.194311 2.6139259 30.21315
4.4912443 12.66978 2.6095357 30.5305
4.4052248 12.840003 2.4290309 28
4.7244706 9.6676769 2.8924928 30.141001
4.7574272 -75.318359 4.2432775 26
4.5553074 44.082699 4.0279222 26.1145
4.6026502 44.060707 5.1240396 27.118002
4.5817323 -75.689201 5.8672147 27
4.5886316 42.344482 5.7841201 28.0585
4.613637 42.262154 6.1753573 28.897625
4.7999201 42.157318 6.5888395 29.165001
4.6748595 -75.676941 6.9846234 27
4.4006381 -75.589737 6.9189148 27
4.6112027 42.079285 7.0422173 29.894501
4.6585999 -75.76255 7.5237651 28
4.672473 41.975891 7.5425448 30
4.4826632 42.049248 7.3137493 29.531876
4.5896363 41.944366 7.8909559 30.535252
4.553411 41.861004 8.2053471 30.166666
4.5531545 41.827423 8.5155897 31
4.7080503 44.063404 8.5660381 30.563751
4.6149263 -75.760597 8.9780951 28.363636
4.4870954 44.049133 9.0237141 31.08275
4.6192751 -75.764069 9.2728567 29
4.5367365 43.986454 9.4477043 31
4.6703606 44.001831 9.4818401 31.0585
4.6113601 44.032539 9.8562107 31.02125
4.6162906 -75.726326 10.723313 29.363636
4.4799113 -75.599434 10.635493 29
4.611362 -75.781273 10.949373 29.615385
4.6748037 -69.620064 11.390039 31.0235
4.5823851 -70.537315 11.886392 30.1495
4.6874423 -75.608833 12.437488 30
4.5119214 -67.928261 13.221539 31.1495
5.0020385 8.4065371 -2.8179004 0
5.1671314 7.9233894 -2.5560987 1.9583333
5.1301761 8.1423683 -2.502912 1.8055557
5.0593252 8.5823221 -2.6073 1.8154763
5.0236669 9.0007362 -2.4862251 3.5
5.0014582 9.3579569 -2.5235546 4.3333335
5.1702185 7.8512249 -2.1501877 2.9433334
5.1199284 8.1262245 -2.215081 3.5999999
5.0821385 8.6137476 -2.2291057 4.8000002
5.0686388 8.8707247 -2.2913284 5
5.1771731 7.7725558 -1.9024998 5.1666665
5.1435299 8.0498857 -1.9309323 5
4.8182154 -38.084095 -1.2537526 22.0755
5.0257082 -21.282698 -1.2120699 21.084999
4.9912577 -38.126183 -1.0418588 22.099501
4.8660202 -18.9802 -1.1388832 21.08975
4.9189811 -18.541519 -1.1112732 21
5.0679779 -18.32819 -1.0960789 21.048
4.9414611 -17.759382 -1.0606685 21.092751
5.0599332 -17.400948 -1.0638146 21.102125
5.010829 -16.736692 -1.079854 20
4.9981284 -16.283308 -1.0185539 20
4.9704437 -15.797295 -1.0563914 20
4.989933 -9.8527784 -0.95947063 19
4.9462004 -9.4368334 -0.99538928 19
4.9420557 -9.0284281 -0.92965084 19
4.9975381 -8.5995073 -0.97417635 18.777779
5.0413437 -8.2178888 -0.98542631 17.9
4.9164033 -7.7216282 -0.95959568 18
4.9881701 -7.451808 -0.93223095 17.25
5.0004792 -6.9991169 -0.94888532 17.1
4.9300013 -6.6131177 -0.94262457 17.25
5.0189352 -6.1442094 -0.94564116 16.941177
5.0115528 -5.7799292 -0.92934573 16.76923
5.039463 -5.4251475 -0.95157951 15.833333
5.0026469 -4.9823594 -0.94277924 16.461538
4.947197 -4.6391354 -0.92530274 15.058334
