# .PCD v0.7 - Point Cloud Data file format
VERSION 0.7
FIELDS x y z intensity
SIZE 4 4 4 4
TYPE F F F F
COUNT 1 1 1 1
WIDTH 1255
HEIGHT 1
VIEWPOINT 0 0 0 1 0 0 0
POINTS 1255
DATA ascii
28.501459 12.173562 -0.26032925 21.888889
28.535479 12.562472 -0.27384445 21.843208
28.590326 12.941755 -0.20500383 21.5
28.58651 -3.727968 0.21637093 23.092693
28.677391 -0.87413108 0.22506705 22.993444
28.625051 -0.68434978 0.20976861 23.0875
28.440247 3.4814215 0.19622503 23.1
28.423052 3.8711472 0.17805164 22.972221
28.435177 4.1687284 0.19352832 23
28.439724 8.3406839 0.29910553 23.107
28.544607 8.6683578 0.34666434 24.021999
28.558661 11.17389 0.1802671 23
28.515631 11.38352 0.17512773 23.192247
28.472281 11.807784 0.19310404 23.0625
28.506725 12.194052 0.18840721 23.125
28.534197 12.570515 0.20547226 22.968208
28.442175 46.971245 0.11736729 23.0655
28.692425 55.463017 0.20240952 23.5
28.591032 -3.729398 0.61080587 24.134087
28.671213 -0.8647728 0.67777729 24.108799
28.657394 -0.69693923 0.65549296 24.109667
28.457043 3.4745526 0.67696667 24.759125
28.425066 3.8424418 0.6719225 24.208334
28.433737 4.191874 0.68079424 24.395704
28.6462 8.1992893 0.6070118 24
28.57358 11.171743 0.63090694 23.5
28.515238 11.353501 0.63327998 24.555893
28.469893 11.770894 0.6981926 24.59091
28.497847 12.189123 0.65313435 24.4375
28.520878 12.557961 0.67457461 24.09091
28.586687 12.938769 0.43498513 23.5
28.537863 47.88834 0.45623973 23
28.7089 55.501019 0.50810319 23
28.599569 -3.7222543 1.0175778 25.222221
28.669231 -0.87706888 1.0050536 25.041668
28.637087 -0.68444258 0.97030902 25.4
28.453482 3.4597349 1.0974084 26.009125
28.432644 3.7794788 1.0899342 25.555555
28.42827 4.199728 1.0330213 25.535933
28.657696 8.2120142 1.0370406 25.357143
28.529369 11.176608 1.045246 24
28.531153 11.36461 0.9923147 25.918657
28.465096 11.709033 1.0558834 26.333334
28.51992 12.251912 1.023023 25.777777
28.553164 12.632346 1.0400606 25.357143
28.577976 12.94236 0.91685843 25
28.617023 55.393093 1.1380333 24
28.589243 -3.724447 1.4090124 26.194468
28.677219 -0.8579486 1.3539904 25.681818
28.626913 -0.67521209 1.3846145 26.263159
28.45965 3.4619403 1.4562817 27.678833
28.443703 3.8331201 1.4359021 27.285715
28.41695 4.1736803 1.3865069 26.215279
28.667048 8.2462873 1.4710984 27.071428
28.653198 11.173849 1.3549367 25.216288
28.508188 11.359715 1.4115864 26.82667
28.476353 11.809649 1.4083619 27.714283
28.492119 12.171468 1.397606 26.444445
28.511562 12.547198 1.367353 26.1061
28.584299 12.953985 1.3996994 26.5
28.528252 47.874222 1.3644972 24
28.611242 55.467968 1.4403085 24.357834
28.609467 -3.719703 1.8549389 27.120369
28.669748 -0.86603045 1.7703151 26.833334
28.657654 -0.70401359 1.8120582 27.564611
28.444176 3.5098858 1.6106967 27.5
28.423893 3.8632112 1.6014872 26
28.410583 4.2322955 1.6264073 29
28.650242 8.2378054 1.9231088 28.166666
28.633636 11.157883 1.7747412 26.452929
28.521492 11.36813 1.790405 28.423882
28.459177 11.784117 1.8227106 28.549999
28.481461 12.142501 1.8141762 27.958334
28.506701 12.518866 1.7406596 26.8561
28.600603 -3.7024055 2.2564976 28.318407
28.677567 -0.85509348 2.1664107 27.785715
28.645851 -0.6842047 2.2026289 28.615385
28.733549 8.2378349 2.2348156 29
28.541693 11.181026 2.0882699 25
28.525557 11.383177 2.1621509 28.844822
28.439663 11.756183 2.2308524 29.071428
28.475149 12.203916 2.194788 28
28.517712 12.582157 2.1803679 28.213417
28.576324 12.953514 2.0488188 28.5
28.675665 41.901066 2.2321475 25.113001
28.550802 55.166084 2.2196836 25
28.624758 -3.6927998 2.5033925 28.717951
28.446142 -3.5242887 2.6961906 29
28.51815 -3.0328691 2.6606336 28.029917
28.562216 -2.641021 2.6660175 28
28.563808 -2.369787 2.662596 29.084499
28.697006 -1.856912 2.6625578 28.362333
28.479376 -1.5051237 2.6119392 31.02075
28.653864 -0.86531502 2.5109479 27.955288
28.685658 -0.69398099 2.4827149 28.9375
28.587894 8.2556438 2.5551593 29.235001
28.637932 8.6561546 2.6322083 29.29105
28.648327 8.9722815 2.5950239 30.085251
28.569937 9.3762569 2.6278756 29.1035
28.635427 9.7283001 2.6245732 29.482
28.628 10.205915 2.6407454 29.603437
28.621733 10.656615 2.6488769 29.254374
28.630053 11.039482 2.6024637 28.635199
28.621073 11.31799 2.469722 27.199785
28.534418 11.678472 2.4276819 26.092751
28.508627 12.255151 2.4687834 29.375
28.523867 12.57189 2.5524704 29.652071
28.565022 12.903142 2.5588479 29.333334
28.546564 41.369968 2.5741651 26.0142
28.731901 41.637306 2.7523298 26.039499
28.535065 54.945499 2.6426039 25
28.533649 31.911684 3.0673668 28
28.561916 12.231783 3.2525108 29.118
28.512203 32.066719 3.5403445 27.578751
28.531132 41.166519 3.448468 27.019749
28.488178 41.319111 3.3732455 27
28.644733 29.533413 3.9135594 30.2328
28.442707 29.650764 3.8329818 28.405167
28.706518 31.949751 3.6751242 29.041502
28.439407 32.006905 3.6694918 29
28.798456 32.97641 3.8823454 30.056999
28.475712 27.275028 4.2647901 31.025
28.627117 28.288584 4.2389998 31.055
28.530466 29.30616 4.3640423 31.054249
28.5842 29.334295 4.4572191 31
28.562387 55.311028 4.8211589 27
28.510626 47.602356 5.5781651 29.056
28.43051 47.891647 5.9596415 29.0415
28.561569 55.513176 5.7923436 28.0735
28.584929 -0.72502524 6.1994143 31.121
28.614626 -3.7644527 6.7104521 31.141001
28.77949 -3.2185936 6.7025452 31.1415
28.680498 11.615314 6.4837651 31.108999
28.464098 47.907692 6.5512815 30.056
29.016672 -3.7560465 -0.44967747 21.333334
29.121361 -3.4587522 -0.49973911 22.0825
28.964087 -2.2707207 -0.50131637 21.02025
28.826904 -0.61256427 -0.47648612 21
29.007357 11.082009 -0.45870802 21.464277
28.938173 11.278094 -0.44546044 21
28.95495 31.581749 -0.58392936 22.1145
29.198574 37.991226 -0.61137611 22.077499
28.924946 55.298302 -0.74273705 23
29.035467 -3.7475147 -0.22331063 21.81835
28.910149 -0.64335299 -0.15646908 21.777779
28.996391 8.3290968 -0.25115147 22.172001
29.027735 11.110398 -0.19469827 21.880678
28.975471 11.29887 -0.20101891 21.832441
28.964622 59.251263 -0.16369903 23.12525
29.051884 -3.7428677 0.21367005 23.024305
29.008978 -0.65476453 0.26973483 23.091166
29.023838 11.102051 0.16716361 23.192101
28.968506 11.283573 0.17720814 23.069263
28.836819 55.56179 0.34973061 24
29.076855 59.169716 0.075683393 23.06225
29.168133 62.188416 0.3736113 24.063499
29.01013 -3.7476017 0.64094776 24.120741
29.017338 -0.6456089 0.63344806 24
29.007824 8.2563009 0.56749243 24.166666
29.003958 11.100852 0.61049497 24.409967
28.953039 11.305812 0.62681007 24.40271
29.047699 -3.7503049 1.0150729 25.325001
29.04496 -0.66539592 0.97801411 25.010445
29.059147 8.2815895 1.0237585 25.5
29.005724 11.113241 1.0005666 25.700001
28.969048 11.298017 1.0916835 26.1
28.954369 59.257099 1.1948825 24.122499
29.02449 -3.7579088 1.4397719 26.050049
29.105139 -0.67811275 1.3847116 26.324249
29.079119 8.1942482 1.4388784 26.5
29.012592 11.097086 1.39771 26.717165
28.940582 11.30067 1.4304258 26.839584
29.129478 59.163528 1.2182807 24.057501
29.016283 59.201645 1.2908809 24.066999
29.016426 -3.7353833 1.8445367 27.666666
28.979149 -0.6532675 1.8264335 27.714285
29.011566 8.2742615 1.6994138 27.375
28.978109 11.097043 1.8324754 28.359501
28.940468 11.29662 1.8747797 28.046101
29.197197 33.836185 1.990062 26.051001
29.173113 62.205421 1.6322043 25.063499
29.198263 66.202255 1.7159468 24.1175
29.012442 -3.7635009 2.2424982 28.520758
29.073946 -0.66904277 2.2150857 29.06814
29.016991 8.2797461 2.2107308 29
28.9741 11.117631 2.188709 29.396456
28.940302 11.297915 2.2331007 28.920359
29.189451 33.831631 2.0194325 26.061001
28.985313 -3.7289557 2.5507112 29.122038
28.962934 -3.4835258 2.6238725 29.030626
28.950455 -3.0407386 2.6311636 28.874918
29.016739 -2.6868806 2.6226883 29.043499
29.018776 -2.2234921 2.6365619 28.824638
29.053335 -1.7977957 2.612772 28.450201
29.002069 -1.541006 2.6040137 30.582001
29.05831 -0.6544596 2.5148492 29.9151
28.826336 8.282959 2.4192278 31
28.981686 8.7042522 2.5352471 27.64275
29.025831 9.0811491 2.5653582 28.179501
28.879784 9.4053097 2.6226447 30.17725
29.030506 9.8657951 2.6403451 30.768167
28.995258 10.251647 2.6395333 29.269699
29.05551 10.627771 2.6312921 29.052
28.904791 11.067742 2.5325143 28.194117
28.845222 11.241117 2.4000881 29
29.140345 41.698425 2.6765342 26.0555
29.173567 33.425617 3.1566584 27.081499
29.075788 25.130188 3.3740811 27.673334
28.991211 25.413052 3.3453336 30.0375
29.020681 25.81493 3.4108622 29.533249
29.078051 26.149632 3.4213886 28.545624
29.085718 26.619917 3.4994655 30.0425
29.142982 27.082352 3.405437 28.066502
29.140856 27.400173 3.4599547 29.535751
29.182379 27.668869 3.3785865 29.024
29.191336 28.124092 3.4103379 29.025
28.808224 31.997339 3.3078432 26.122
28.96981 41.310532 3.4486616 27.032499
29.189507 24.345612 3.8076746 30.018999
29.163206 24.954206 3.904321 30.005501
29.174969 25.369656 3.9452515 30.018501
29.197115 25.836025 3.9872954 30.0205
29.180126 26.173203 3.9462726 31.038
29.021061 29.54372 3.9191551 30.2785
29.043962 25.984943 4.1521516 31.023251
29.037395 26.185255 4.1786494 30.761002
29.073139 27.188431 4.0848389 31.039
29.050472 27.204466 4.0813742 31.05225
28.989305 28.24283 4.236753 31.048668
28.949423 29.333534 4.379066 31
29.188913 29.443439 4.4218011 31
28.947222 -3.2670472 6.6148834 31.145
29.137709 -2.7533355 6.613946 31.1455
29.184866 10.679452 6.6609669 31.149
29.173798 11.194026 6.7827229 31.0945
29.411993 -3.812113 -0.48330647 21.52375
29.433453 -3.3315437 -0.45752877 21.036875
29.379442 -2.8261771 -0.45727116 21.050625
29.230398 -2.0174367 -0.50216115 21.021
29.555738 -1.5439746 -0.5532341 20.54925
29.436979 3.3371546 -0.45455435 21.037001
29.31134 9.2471809 -0.50100291 21.1765
29.473053 9.8079176 -0.50236994 21.177624
29.54962 10.383493 -0.50107002 21.178749
29.591995 10.768832 -0.50043082 21.179501
29.334286 11.141086 -0.50464064 22.081749
29.385092 11.325438 -0.45334908 21
29.558949 25.45154 -0.67436588 22
29.223057 33.797356 -0.5343346 22.068001
29.326275 39.591084 -0.62268019 22.063
29.383219 40.409973 -0.66628534 22.077999
29.392551 42.573471 -0.71474922 22.078501
29.408342 -3.7687299 -0.25053155 21.775
29.305994 -0.60390836 -0.16731595 21.666666
29.562124 3.2081978 -0.38777179 21.0315
29.376829 11.349887 -0.23663417 21.821346
29.565138 25.152758 -0.29432017 22
29.561222 25.424816 -0.23482589 22
29.581772 25.70137 -0.2688323 22
29.426613 -3.7749686 0.20662309 23.068254
29.39896 -0.73340422 0.26726753 23.166666
29.50713 3.1341033 0.28153998 23.5
29.373127 8.4127655 0.36690971 24
29.486124 9.6587915 0.22498229 23
29.370111 11.376868 0.12541735 22.708334
29.563742 25.120554 0.14255036 23
29.559259 25.444704 0.20751692 23.015856
29.572939 25.720596 0.20131904 23.029333
29.349491 66.136559 0.11080152 23.092499
29.570568 73.979012 0.097943187 23.115999
29.414143 -3.7632368 0.64020509 24.35
29.437302 -0.69575161 0.48594502 23.775
29.575073 3.1428974 0.58794272 25
29.410381 3.2927718 0.54451644 24.5
29.380178 8.257638 0.6421544 24.10005
29.352818 8.4423304 0.53146946 24.5
29.469763 9.4460421 0.49953958 24.019667
29.452496 9.6349583 0.64143801 24.5
29.217478 11.197848 0.79510242 24.1635
29.364269 11.35833 0.56819922 23.982332
29.565874 25.152628 0.68473756 24
29.554655 25.508718 0.69125533 24
29.570484 25.725445 0.68991357 24.003748
29.400705 -3.7804859 1.0297602 25.261906
29.380499 -0.7137202 0.97431797 25.35
29.452509 3.1726975 0.81442183 25.5
29.499062 3.2316113 0.94888508 26.0315
29.382145 8.2456903 1.0647963 25.200001
29.358297 8.4591684 0.9841401 26.00025
29.454021 9.6632919 1.0592186 26
29.357697 11.361335 0.98989105 25.282331
29.559244 25.136801 0.98747879 24.25
29.556353 25.433689 1.0006495 24.158712
29.561609 25.692089 0.98333782 24.369944
29.385046 -3.7600422 1.4378964 26.305555
29.309544 -0.72241604 1.4444857 26.775
29.375174 8.2467051 1.3730595 26.061634
29.362885 8.4350681 1.3871411 27.333666
29.351572 11.364563 1.415777 26.386093
29.521881 25.089025 1.3255543 25
29.546389 25.407854 1.3602887 25
29.564709 25.737803 1.3878392 25.200001
29.374075 66.108421 1.3724781 24.095249
29.412308 -3.7826271 1.8021681 27.712961
29.277306 -0.66842616 1.8235266 26.7735
29.403336 8.2601357 1.8321732 27.147251
29.348154 8.4360409 1.764181 28.667
29.379787 11.365824 1.825521 27.389687
29.546478 25.135944 1.8056567 25.714285
29.556896 25.433084 1.8509868 25.422199
29.562315 25.756865 1.8232348 25.705557
29.582827 26.201797 1.9476736 26.0205
29.227501 66.196976 1.6973275 24.115499
29.553692 73.978142 1.8636991 24.115999
29.384951 -3.7691178 2.1979337 28.46875
29.310253 -0.70083761 2.1911976 28.85
29.40732 8.2704992 2.2226355 28.202017
29.325914 8.4307461 2.1848087 30.666666
29.424854 11.362553 2.2133377 28.459772
29.533276 25.160322 2.2773175 27
29.546497 25.444731 2.2914774 27
29.558876 25.758017 2.1607268 27.005625
29.582668 26.217999 2.1802878 27.020166
29.409494 -3.7774949 2.5247705 29.464285
29.34565 -3.3597658 2.6453917 30
29.365906 -2.9419429 2.6322014 29.527439
29.416567 -2.5384908 2.632926 29.527
29.40752 -2.1166861 2.6401372 29.195417
29.502981 -1.9451001 2.6624289 30
29.326853 -1.5087768 2.6800451 31.077
29.348223 -0.70082283 2.5925186 29.525
29.383804 8.2433786 2.5182114 29.5
29.375706 8.4448137 2.608134 30.174999
29.410917 9.3026714 2.6165595 30.561937
29.452963 9.8645468 2.6485379 29.053501
29.341148 10.177108 2.6568503 29.0345
29.373058 10.622851 2.6457908 29.333334
29.375893 11.369908 2.4387605 28.799999
29.551453 25.140436 2.6929898 27
29.551426 25.48649 2.6324878 27
29.559944 25.751402 2.6290057 26.937557
29.577158 26.190063 2.5855658 27.693666
29.545824 25.144739 3.0110946 28.4
29.553846 25.421537 2.9742091 27.27775
29.557873 25.71435 3.0086122 28.4
29.576637 26.216223 2.9860969 27.723167
29.219286 11.516088 3.2116356 31.0825
29.414951 25.105471 3.418654 29
29.54961 25.810474 3.2233238 29
29.56982 26.260509 3.2576697 29.011501
29.495611 26.697418 3.307528 29
29.442904 26.995735 3.3103263 29.005875
29.312851 27.793209 3.2693894 30
29.363577 28.613066 3.3108375 29.364668
29.336502 28.961321 3.4059141 29.036751
29.301405 29.380465 3.3912151 29.371
29.308836 29.644585 3.4031949 28.398666
29.560846 33.433781 3.3770418 26.119499
29.266663 25.002098 3.7503943 30.00325
29.279713 25.517223 3.6688006 30.021999
29.286491 25.833239 3.8213029 30.018625
29.278484 26.211735 3.8445189 30.522999
29.363791 26.605892 3.7910717 30.0047
29.373987 27.031868 3.7521205 29.673834
29.396212 27.37738 3.7903211 30.692167
29.401329 27.742857 3.8078713 30.229
29.46221 28.242348 3.8287635 30.215698
29.503426 28.614851 3.8281033 30.183584
29.547251 29.053032 3.8641732 30.013334
29.350508 29.435427 3.9397414 30.245401
29.298594 26.290058 4.1570501 30.00725
29.257698 26.891777 4.075304 30.702166
29.332851 28.235287 4.2623911 31.02375
29.419044 29.025345 4.0857835 30.025499
29.44591 -3.8263273 6.5695739 31.1465
29.342216 9.5944958 6.6743646 31.148001
29.381855 9.6460352 6.6490283 31.15
29.782383 -3.838577 -0.44488242 21.666666
29.616978 -3.2143617 -0.54014087 21.095751
29.692024 -3.1092646 -0.50301856 21.000999
29.660614 -2.5883093 -0.52995896 21.073833
29.697472 -2.2013144 -0.46430919 21.082918
29.706419 -1.8473643 -0.48573753 21.08725
29.788986 -1.526698 -0.42577419 21.077
29.87393 2.9721828 -0.40488279 21
29.626223 3.7840459 -0.45898321 21.03825
29.870565 10.206421 -0.49605712 21.025999
29.868408 10.653481 -0.50454634 21.031334
29.797195 11.068256 -0.50335032 21.007
29.8339 11.31178 -0.45963529 21
29.65913 25.088598 -0.67085195 22
29.89673 29.049492 -0.42983264 22
29.859554 29.450556 -0.40125111 22
29.880636 29.609274 -0.40483254 22
29.908155 30.326674 -0.41997713 22.0585
29.925083 30.602869 -0.40499088 22.0485
29.940498 31.016588 -0.49748203 22.066
29.968494 31.414627 -0.43410611 22.054001
29.682543 32.532944 -0.51982951 22.066999
29.922146 35.233925 -0.51514202 22.051001
29.91095 36.67691 -0.56006724 22.061501
29.736895 49.752571 -0.59196013 22.0345
29.884026 51.204315 -0.67930704 23.061501
29.717119 53.457672 -0.71932095 23.062
29.954811 57.658516 -0.7966302 23.0625
29.837038 -3.7840841 -0.24405339 21.943262
29.864744 3.0575902 -0.13965398 22.166666
29.807108 3.3240151 -0.12506056 22.487732
29.941574 3.8857684 -0.078288235 22.5
29.86832 11.18775 -0.23566377 22
29.772583 11.348646 -0.21475212 21.950001
29.825205 25.075094 -0.23450391 22
29.622158 25.207819 -0.15189087 22
29.886293 29.037519 -0.28073311 22.272728
29.867365 29.411022 -0.25917256 22.408001
29.893353 29.706913 -0.37577698 22.024
29.956877 30.390547 -0.38027644 22.040501
29.965017 30.510706 -0.30466515 23.054501
29.828941 -3.795162 0.20251612 23.099117
29.74386 -0.71970844 0.27912614 23
29.838591 3.0230296 0.16024978 23.3405
29.792303 3.3488402 0.23278825 23.75
29.91927 3.8757815 0.31558472 24
29.777374 11.19694 0.17019358 23.5
29.758862 11.336066 0.14011815 22.857143
29.727179 25.084257 0.18649364 23.01375
29.882936 29.028839 0.21093611 23.142857
29.858942 29.406628 0.20761508 23.148573
29.90803 29.707693 0.15677559 23.016001
29.948652 30.390722 0.15743136 23.0495
29.967627 30.600069 0.20444058 23.5515
29.990501 30.91156 0.17744136 23.129999
29.883863 32.571182 0.16853151 23
29.860781 33.015945 0.17574681 23
29.854559 33.271633 0.18300518 23
29.902952 33.662643 0.18265776 23
29.712645 66.048286 0.18725489 23.073999
29.88415 73.888847 0.088271797 23.068001
29.821629 -3.7905905 0.65381444 24.115849
29.810976 -0.68879604 0.72115707 24
29.873598 3.087445 0.76357943 25.666666
29.760111 3.369175 0.57651097 24.799999
29.916466 3.8854761 0.7112959 25.5
29.72139 8.1880789 0.5807007 24
29.768238 11.192676 0.5748027 25
29.787251 11.346683 0.5680334 24
29.720255 25.089655 0.74443102 24
29.865385 29.051626 0.69504893 24
29.859713 29.404697 0.72994959 24.166666
29.839355 29.631744 0.68998063 24.024
29.805597 -3.7901123 1.041337 25.184237
29.73514 -0.72110736 0.99969381 24.5
29.846352 3.0637791 1.1389164 26.8405
29.865887 3.3180528 1.0706906 26.625
29.711899 8.1958055 0.99772412 25.25
29.788094 11.195361 0.98012924 26.5
29.791523 11.349975 0.98968017 25.136364
29.740496 25.067219 1.0207959 24.301428
29.855141 29.061289 0.82094419 24
29.853695 29.501928 0.83086371 24
29.89423 32.978783 1.0256037 24
29.859789 33.440002 1.0393217 24
29.81889 -3.7874691 1.4687163 26.014387
29.669836 -0.68966216 1.323601 25.75
29.853104 3.0733676 1.4673834 28.007166
29.898821 3.3223374 1.4752886 28.1
29.720741 8.1725035 1.4042759 26.375
29.795425 11.195019 1.3891879 28
29.803352 11.356474 1.4256656 26.272728
29.758221 25.079559 1.3514323 25
29.857672 29.02964 1.3188113 25
29.849901 29.392517 1.2922782 25.333334
29.871801 29.605036 1.245986 25
29.729174 66.060448 1.5487419 24.073999
29.815504 -3.8109248 1.8045725 27.666666
29.749538 -0.69253784 1.7551992 26.666666
29.829479 3.0649035 1.7912297 29.173834
29.882317 3.2976856 1.7726548 29.133331
29.775873 8.1769543 1.8870348 28
29.806135 11.195486 1.8007275 29.5
29.809372 11.35671 1.8642752 27.40909
29.741966 25.061811 1.8597747 25.4025
29.602873 25.834311 1.7701818 25.55525
29.646418 26.303001 1.7421805 26.011501
29.655306 26.702539 1.8570499 25.560249
29.69235 26.926758 1.8342142 25.648701
29.706192 27.362013 1.8133129 26.012001
29.736591 27.749323 1.8233442 26.048899
29.786446 28.204042 1.7789274 26.021875
29.811064 28.660431 1.7888532 26.351831
29.828564 29.054832 1.8032957 26.285715
29.85615 29.399755 1.7896895 26.005716
29.911039 29.742836 1.7976 26
29.943745 30.388294 1.8391232 26.0495
29.991459 30.640474 1.8385178 26
29.99506 31.009729 1.8618603 25.598
29.866022 32.553249 1.8615997 25
29.842203 33.004002 1.8824499 25
29.852722 33.310528 1.8978144 25
29.905035 33.712406 1.9158354 25
29.883368 73.904739 1.6139016 24.068001
29.795025 -3.8000619 2.1559331 28.033985
29.70919 -0.68609339 2.0747504 27
29.648502 8.2253418 2.27953 30
29.817217 11.196011 2.2187595 31
29.813374 11.348662 2.2540562 28.259125
29.711643 25.097464 2.2818429 27
29.60421 25.685595 2.0010331 25
29.616926 26.399254 2.0217686 25.1115
29.684767 26.662674 2.1324975 26.273001
29.64381 26.987446 2.296777 27.007833
29.691544 27.37546 2.1449764 26.448498
29.727507 27.811651 2.2779679 27.6047
29.765615 28.195002 2.217979 26.392332
29.787153 28.673923 2.2613144 26.342249
29.824734 28.974783 2.3067026 26.712
29.850002 29.385998 2.311372 27
29.885759 29.630564 2.3407171 27
29.912092 30.192419 2.3832374 27.032999
29.972988 30.61968 2.399297 27
29.801579 -3.7752798 2.5641756 28.666666
29.837898 -3.3455737 2.6545584 30.333334
29.816896 -3.0273883 2.6331372 30
29.872061 -2.622541 2.6338389 30.342667
29.809111 -2.3536007 2.6454697 31.028126
29.923136 -1.6953484 2.6314757 30.577999
29.992029 -1.5885718 2.6634972 29.098499
29.736225 -0.76143771 2.4561083 27
29.787762 8.1356802 2.482192 28
29.929451 9.1027279 2.6128361 31.017
29.664427 9.4712229 2.6422131 30.044312
29.747734 9.7865076 2.6443281 29.713417
29.731991 10.214745 2.6477826 30.029749
29.726681 10.591303 2.6472752 31
29.800932 11.003922 2.6448226 30.5
29.775595 11.323349 2.5218213 28.953428
29.795177 25.0714 2.6327171 26.7775
29.602177 26.263672 2.7576456 28
29.629341 26.720472 2.6534057 27.220833
29.677944 27.39677 2.6275864 27.702166
29.720116 27.79949 2.7291636 27.703165
29.737076 28.169081 2.7343433 28.035875
29.800514 28.69607 2.6148548 27.5
29.821497 28.989111 2.6144955 27.25
29.860874 29.421997 2.447103 27
29.898596 30.598963 2.5979486 27.092251
29.930351 30.93141 2.4360828 27.066
29.963354 31.426296 2.5115557 27.387667
29.831984 32.995514 2.7341666 26
29.845682 33.31427 2.7544539 26
29.880463 33.671009 2.7781875 26
29.809408 -3.8602996 3.0917325 29
29.609928 11.435764 3.1179345 31.09
29.791025 25.066227 2.9716187 27.25
29.64031 25.703852 2.9318416 26.08325
29.668585 26.669342 2.9969544 27.416166
29.652838 26.995817 2.8258166 27.533125
29.686094 27.370123 3.0449216 28.048498
29.708321 27.729116 2.8516285 27.711668
29.782587 28.21484 2.9707031 26.877499
29.772182 28.687737 3.0053909 27.508917
29.824774 29.003908 2.9272683 27.588572
29.841768 29.387974 2.9289234 28.148573
29.874578 29.753172 2.8972442 28.012001
29.879789 30.288494 2.9559579 28.0495
29.928511 30.557003 2.9596975 28
29.932535 30.922518 3.0300891 28.066
29.970957 31.47547 3.0408461 27.310875
29.994392 31.680548 2.9410772 27
29.938053 34.369213 2.8241532 26.1105
29.919971 25.059622 3.4807994 29
29.681711 27.817511 3.2590616 29.5
29.719267 28.191648 3.2563989 29.035875
29.715794 28.680004 3.3038306 29
29.748606 28.950478 3.2833209 28.333334
29.870365 29.234089 3.2253041 27
29.82836 33.082893 3.5965867 27
29.829966 25.108162 3.6899633 30
29.988791 31.429888 3.7206542 29.556999
29.885965 33.707531 3.6491053 27
29.997969 34.549824 3.7254076 27.1105
29.736687 29.41811 4.7451248 31.025499
29.698574 -3.3247864 6.5684471 31.146999
30.224743 -3.8312216 -0.45992339 21.531189
30.271259 -3.3992605 -0.51989126 21.542751
30.315754 -2.9470208 -0.52264345 21.386667
30.191662 9.5797091 -0.50054324 21.0245
30.043715 9.8956833 -0.49882928 21.025249
30.373919 10.468571 -0.49291223 21.012249
30.258837 11.026576 -0.4610112 21.008833
30.271414 11.306046 -0.43456683 21
30.052456 24.960318 -0.6743241 22
30.033329 28.86451 -0.56127536 22
30.052544 32.273209 -0.50262666 22.022165
30.086506 32.563042 -0.46505287 22
30.11754 33.001732 -0.46261528 22
30.135733 33.380856 -0.4572207 22
30.160894 33.678219 -0.46491444 22.045832
30.28891 34.674492 -0.47893092 22.066
30.226374 34.925995 -0.52320546 22.060499
30.319294 35.729885 -0.45603937 22.0285
30.387653 36.784355 -0.47371158 22.028999
30.317904 49.238995 -0.5849756 22.034
30.200207 -3.7868087 -0.25569022 22.038589
30.247887 11.160101 -0.24604173 22
30.182964 11.305613 -0.21580786 21.884615
30.134943 25.039381 -0.26931009 22
30.108622 28.721743 -0.37581283 22
30.223 28.877832 -0.33287722 22.111111
30.036791 31.508686 -0.32310697 23.055
30.044758 31.65756 -0.18277605 22.0245
30.14422 32.598316 -0.26553375 22.50625
30.122847 32.983616 -0.3101055 22.333334
30.131886 33.27306 -0.31346768 22.333334
30.208834 33.640926 -0.35987562 23
30.290913 34.178753 -0.29718694 22.073999
30.253429 34.744064 -0.35266635 22.0285
30.294006 35.089169 -0.29678309 22.5415
30.334122 35.784016 -0.36871266 22.028999
30.394135 37.207466 -0.2205424 22.0275
30.228207 -3.8235674 0.19629699 23.072523
30.20153 11.169312 0.12785783 23.166666
30.202213 11.312414 0.16231328 22.90909
30.128258 25.041332 0.24538983 23.0221
30.11026 28.752558 0.16037911 23
30.181923 28.888531 0.21363696 23.166666
30.009956 31.14056 0.088369384 23.066
30.030001 31.481823 0.2142355 23.408333
30.188395 31.823549 0.25208139 23.081501
30.108362 32.319347 0.045381818 23.089001
30.165747 32.644211 0.19784608 23.181818
30.154764 32.989212 0.20999353 23.111111
30.169954 33.399002 0.2043125 23.159214
30.209387 33.743137 0.19360143 23.284374
30.243633 34.228813 0.16689993 23.08
30.211872 34.626476 0.22270036 23.074501
30.303711 35.021729 0.1604242 23.30875
30.354036 35.800114 0.27115899 23.028749
30.387121 36.174534 0.1374317 23.051001
30.394217 36.763729 0.20517811 23.0145
30.251957 36.806423 0.042920522 23
30.232037 73.844162 0.13574646 23.082001
30.033195 77.851486 0.11595155 23.118
30.199831 -3.8087847 0.65655023 24.227194
30.114937 8.1880445 0.53310436 24
30.163759 11.172029 0.59746903 24.75
30.217403 11.307664 0.54881287 23.884615
30.185925 25.069559 0.69574457 24
30.098103 28.742773 0.68438935 24
30.182018 28.886019 0.68590319 24
30.370665 31.160742 0.72317117 24.0585
30.202347 32.921875 0.63555652 23.555555
30.127258 33.34462 0.60333383 23.437143
30.391712 37.2005 0.50991488 23.0275
30.220678 -3.8072705 1.0552201 25.117476
30.159298 8.1823406 0.98968643 25.5
30.173414 11.172877 1.0733008 26.5
30.209587 11.302227 0.9939115 25.038462
30.123476 25.041328 1.0141331 24.222101
30.141987 28.921434 0.82372123 24
30.349411 31.187023 0.84270704 25.054501
30.376934 32.019184 1.0783504 24
30.188711 32.977852 0.96451116 24.222221
30.133007 33.422005 0.95140213 24.333334
30.381491 36.798038 0.97517383 24.0145
30.213942 -3.8067505 1.4870257 26.089666
30.143433 11.174602 1.4996628 28
30.216009 11.315529 1.3678539 26
30.148222 24.678566 1.3652977 24.7115
30.093945 25.032255 1.3715497 25
30.196354 28.735025 1.2667619 25.5
30.15237 28.872761 1.2869965 24.833334
30.362314 31.148794 1.3101484 25.0585
30.354406 31.201214 1.4228821 26.054501
30.195478 32.932674 1.4269873 24.799999
30.14653 33.39838 1.4599698 24.91745
30.382915 36.996967 1.2331362 24.01375
30.22871 77.79776 1.4917821 24.123501
30.190805 -3.8375432 1.7748978 26.833332
30.221048 3.5190485 1.8402615 29.032749
30.193165 8.1785812 1.6023887 27.5
30.202141 11.137411 1.871114 28.208334
30.219589 11.310805 1.8049427 27.17647
30.162586 25.047598 1.8705695 25.733
30.259407 28.731245 1.7459761 26
30.004585 28.898916 1.7429436 26
30.208473 30.310904 1.8307648 26.048
30.007633 30.606058 1.9523693 27.054501
30.006111 31.423216 1.8981252 26.059
30.048164 31.666716 1.8996779 26.049
30.199429 32.206703 1.8713969 25.392668
30.1567 32.665504 1.9584516 25.75
30.229387 32.856899 1.9390112 25.799999
30.119207 33.288933 1.8351325 25
30.219843 34.21471 1.8221372 25.025999
30.177122 34.798435 1.8924748 25.122999
30.293997 35.180832 1.8728509 25.026501
30.24369 36.835747 1.9709764 25
30.231853 73.856094 1.7040987 24.082001
30.205591 -3.8186281 2.1754286 27.427387
30.077364 8.1974993 2.1996777 29.5
30.239922 11.174797 2.2851896 30.666666
30.247936 11.316775 2.2340798 28.107143
30.194124 25.07522 2.2038841 27
30.233137 30.358595 2.3954055 27.048
30.260918 31.93425 2.2193096 26.056334
30.041796 32.377968 2.3641806 26.025
30.068808 32.695438 2.3909709 25.5
30.21192 32.939823 2.1743543 26
30.161238 33.380882 2.1502619 26.264313
30.304672 33.954567 2.1301758 26.043751
30.315506 36.20945 2.3259139 27.056999
30.214426 -3.7969491 2.5262783 28.730167
30.170458 -3.4236095 2.6361263 27.462101
30.184973 -2.9908676 2.6475248 28.297306
30.187046 -2.53531 2.6290934 28.316498
30.092117 -2.1277995 2.6363587 29.602142
30.101442 -1.784986 2.625757 29.05225
30.000668 8.2101517 2.6500192 31
30.095703 9.136157 2.5985968 28.450668
30.253363 9.4104471 2.6390839 30.071299
30.177267 9.8421097 2.6426775 29.858301
30.237755 10.135959 2.6320028 28.337812
30.240637 10.588744 2.6351571 29.075928
30.217957 10.992868 2.650429 29.6
30.239876 11.293286 2.4950664 28.625
30.186676 25.056313 2.5734189 27.505125
30.06547 32.304787 2.5506678 27.022165
30.069239 32.529831 2.6176598 27.423
30.105579 32.92585 2.6170716 26.666666
30.140337 33.343391 2.6149995 26.75
30.13036 33.64109 2.6574793 27.055
30.234371 34.105888 2.5141983 25.573999
30.292873 34.658482 2.5924633 26.094999
30.225512 34.885288 2.7626917 27.0555
30.394697 -3.7933762 3.0509062 29
30.114113 25.039492 2.9302845 27.027626
30.001194 31.476809 3.1834791 29.055
30.010231 31.824831 2.9542644 27
30.038368 32.271736 3.0586224 27.300751
30.070572 32.614403 3.0369587 26.757439
30.103363 33.041817 3.0811927 27.333334
30.115417 33.401447 2.8887901 26.666666
30.153141 33.858494 2.9413042 27.053749
30.200844 34.261791 3.0483136 26.578499
30.171341 34.630882 2.9324193 27.0285
30.228102 34.881676 2.8980467 28.056499
30.321098 35.730022 2.9793267 28
30.289732 36.20821 2.9050667 26.5
30.163378 25.058302 3.3685555 29
30.083366 31.726849 3.4581933 27.379499
30.104921 32.552063 3.283401 27.611099
30.10778 32.964981 3.3333626 27.444445
30.140181 33.320354 3.362015 27.302073
30.184721 33.72298 3.3850508 28.284374
30.276951 34.971695 3.4832828 28.30875
30.140263 25.08703 3.7269149 30
30.036617 31.760567 3.6314056 28.5245
30.079035 32.23571 3.8502839 28.089001
30.124428 32.592876 3.7775238 28.676052
30.10648 32.952591 3.8158033 28.75
30.105696 33.377567 3.8444645 28.411999
30.217525 34.153027 3.8053484 28.08
30.221605 34.413048 3.8513839 27.131001
30.16695 34.820217 3.7340965 27.122999
30.110203 32.986649 4.0584831 29
30.111923 33.434574 4.0583286 29.666666
30.261919 28.760908 4.713891 31.0245
30.260534 28.838018 4.7680922 31.024
30.286287 9.3180265 6.6893029 31.153999
30.223509 11.293543 6.4202313 31.122499
30.315342 -2.8006589 6.8078508 31.135
30.674562 -3.9044623 -0.44195068 21.428572
30.4561 -3.4693315 -0.49677232 21.086
30.543734 -3.0611672 -0.50001776 21.08675
30.565187 -2.6249557 -0.52010846 21.043751
30.65107 -2.1843424 -0.52925289 21.071249
30.690777 -1.7650837 -0.5244782 21.076374
30.645885 -0.98756719 -0.53949881 21.0944
30.532892 9.1372318 -0.51051807 21.0235
30.479757 9.9799156 -0.49880841 21.01125
30.449295 11.082569 -0.42470014 21.516251
30.651936 11.258316 -0.44025305 21.015999
30.409588 28.919907 -0.43142998 22
30.472113 35.59417 -0.4121528 22.122499
30.44521 36.335644 -0.40950418 23
30.444029 36.657246 -0.41527963 23
30.537491 37.041245 -0.42939824 22.122999
30.481806 37.895908 -0.46685514 22.543499
30.498419 38.112793 -0.40519756 22.030001
30.718817 38.74831 -0.4502883 22.123501
30.564106 39.159409 -0.51442385 22.030001
30.608727 39.469017 -0.44862905 22.54425
30.581308 40.305897 -0.50219202 22
30.718739 40.557671 -0.46559316 22.5
30.626419 40.909389 -0.49535817 22.333334
30.767586 41.904652 -0.56246936 22.031
30.772257 42.234001 -0.47150838 22.0315
30.433653 73.815033 -0.43966404 22.115499
30.680731 -4.0749993 -0.32415354 22
30.601896 -3.8320107 -0.24210384 21.985588
30.657553 -1.0125982 -0.34677216 21.074499
30.595446 11.156092 -0.21424328 22.020166
30.572395 11.298313 -0.2725746 21.857
30.595686 28.884439 -0.32767856 22.200001
30.404625 36.776276 -0.21948059 22
30.52564 38.425125 -0.23011166 22.028
30.595795 38.958015 -0.32386696 22.037001
30.616646 39.649967 -0.23966381 22.0285
30.702009 40.275219 -0.29521194 22
30.7248 40.570496 -0.29871839 22
30.644159 40.965912 -0.23220418 22.382666
30.699427 -4.0877681 0.25350443 23
30.637625 -3.85849 0.2194639 23.05665
30.559866 11.116825 0.27328724 23.344168
30.565771 11.310439 0.13570738 22.822001
30.594366 28.895329 0.22180252 23.184916
30.46072 36.316669 0.099210903 23
30.451214 36.571865 0.15119845 23.151571
30.433874 36.904976 0.28761044 23.081499
30.456268 37.49485 0.13339184 23.0515
30.52656 38.159435 0.19934675 23.047375
30.62084 39.358448 0.28655702 23.030251
30.64485 39.884449 0.13067961 23.062
30.689167 40.377022 0.24872078 23
30.728661 40.597347 0.24658462 23.200001
30.622126 40.947849 0.23823963 23.199167
30.701208 42.126347 0.020172352 23.1245
30.677618 44.571384 0.15920725 23
30.79114 81.629921 0.14908379 23.084999
30.681334 89.562195 0.076619551 23.116501
30.633051 -3.857563 0.62673908 24.099094
30.600248 11.155692 0.62181622 25.014
30.608826 11.307508 0.54511207 23.782358
30.550753 28.895657 0.68844175 24
30.416428 31.975662 0.57068831 23.533001
30.56848 32.775188 0.73739612 24
30.449877 32.807125 0.4543615 23
30.632694 34.773773 0.48117957 23.025999
30.707684 35.784969 0.64188033 23.51325
30.418573 36.793312 0.50309265 23
30.542894 37.058571 0.60496515 23.122999
30.763632 40.660614 0.48865324 23
30.697786 40.917328 0.48413548 23.009666
30.540638 81.664215 0.46380594 24.064501
30.693014 -4.0816731 0.83145112 24
30.629965 -3.8507199 1.0141276 25.04512
30.536154 11.135834 1.095721 25.375
30.596468 11.31551 0.95274472 24.808849
30.613155 28.908352 0.99577475 24.05475
30.463642 32.003986 1.0796387 24
30.506634 32.74358 0.88319629 25
30.482021 32.842999 1.1053475 24
30.60751 34.358639 0.89449728 24.0275
30.715206 35.854214 0.88926631 24.530251
30.590218 36.70562 0.94797528 24.229
30.425846 36.896435 1.0909305 24.081499
30.408184 37.408787 0.83573687 24.0515
30.744614 40.683323 1.1089635 24.25
30.573338 40.989159 1.0092795 24.236301
30.767937 -4.0874777 1.4179661 25
30.619699 -3.8384595 1.4147675 26.269705
30.564514 11.15725 1.3848203 27.5
30.557646 11.329105 1.3785888 25.91445
30.638662 28.880058 1.320182 25
30.434217 31.950089 1.3129201 25.066
30.466711 32.03083 1.2148678 24.111
30.520306 32.755863 1.3947345 25.200001
30.411482 32.827946 1.3237636 24
30.605953 34.356865 1.5662658 25.0275
30.703478 35.859715 1.4999373 25.030251
30.544836 36.695362 1.5290564 25.015251
30.402176 37.410606 1.5441298 25.0515
30.69523 40.904934 1.3896216 24.032299
30.700954 44.666107 1.2735093 24
30.413399 73.792984 1.3129147 23.115499
30.770199 -4.0878716 1.9998786 26
30.616224 -3.8720698 1.7531312 26.482523
30.580862 11.137578 1.7936677 28.19075
30.603476 11.317522 1.7876849 26.900679
30.537312 28.652676 1.7601528 26
30.447264 31.980543 1.7188439 25
30.43494 32.722794 1.7542534 25
30.736616 35.893517 1.6411335 26
30.571203 36.669243 1.7723752 25.666666
30.420803 36.896385 1.9012876 25.081499
30.509155 37.907307 1.7233776 26.057501
30.504391 38.134064 1.78272 25.030001
30.73444 38.793072 1.691175 24.123501
30.606367 38.99437 1.896866 25.037001
30.613947 39.407936 1.80639 25.372833
30.704016 40.356564 1.8567553 25
30.717669 40.647732 1.8779086 25.25
30.630886 40.947739 1.8652589 25.177084
30.618015 -3.84533 2.1590483 27.621046
30.428776 9.2505798 2.3853106 26.158501
30.50885 9.7846498 2.382803 26.159
30.573587 10.321288 2.3797452 26.1595
30.516462 11.072572 2.3040576 27.886667
30.636978 11.308116 2.1787071 28.10273
30.416315 31.975489 2.1861556 25.111
30.447123 32.782745 2.3033323 25
30.435396 34.194897 2.0611341 26.049999
30.69441 35.390965 2.3226936 26.02825
30.66029 35.844967 2.2315769 26.3535
30.622631 36.696907 2.1739798 25.5
30.694126 39.765579 2.1199005 25.0285
30.65328 40.837215 2.1746738 25.028999
30.771936 -4.0878839 2.5839064 27
30.59189 -3.7929411 2.5534391 28.694786
30.580788 -3.4143891 2.6232371 29.62475
30.649597 -3.0385895 2.6258974 29.020874
30.556705 -2.5922427 2.6322234 27.302874
30.578299 -2.17699 2.639313 27.589943
30.630348 -1.8356843 2.6414063 28.430666
30.476303 -1.512947 2.7611041 31.0735
30.552626 9.478816 2.6489983 29.617874
30.606451 10.197343 2.6402528 29.528875
30.691708 10.627551 2.6506038 28.705332
30.591528 11.045473 2.6219997 28.628901
30.59663 11.288321 2.4992967 28.308136
30.67156 25.02194 2.4727123 27.016998
30.412909 36.888252 2.7067883 26.081499
30.459787 38.310005 2.7940605 26.028
30.553049 39.145058 2.5288584 26.030001
30.630943 39.291359 2.6062286 25.577251
30.672955 40.233494 2.6235418 25.780624
30.664406 40.551273 2.6674316 26
30.688232 40.951149 2.6946082 25.799999
30.745781 41.870731 2.7107203 26.031
30.743925 42.199108 2.7910841 26.0315
30.653994 44.77533 2.4012127 25
30.549641 24.980267 3.00787 27.378166
30.551439 39.53244 2.8854072 26.0285
30.682428 41.429779 3.0253558 26
30.750792 41.789341 2.8368552 26.038
30.74518 42.212769 3.0876679 26.029499
30.447054 40.976269 3.3038087 27.0625
30.728506 43.126312 3.3286531 26
30.751961 43.99353 3.2282491 26
30.625031 40.943043 3.8025396 26.75725
30.708977 35.85619 4.302691 29.067499
30.632051 40.792786 4.6121392 28.028999
30.569778 41.03904 4.6330924 28
30.607271 40.748295 5.4244289 29.028999
30.544889 40.994003 5.4494529 29
30.613337 10.180729 6.7837481 31.1075
30.425703 10.903015 6.7833767 31.133499
30.494719 -2.2423024 6.8131928 31.1355
31.030535 -3.9182627 -0.45397744 21.555555
30.922388 11.228198 -0.41273358 21
30.832365 28.890863 -0.43372437 22
30.885054 43.870121 -0.4983786 22.032
31.011356 44.226948 -0.45233276 22
30.987614 44.539864 -0.50772327 22
30.982555 45.009403 -0.56720352 22
31.091606 45.465851 -0.4175351 22.039
31.022121 45.668827 -0.52825302 22.032499
31.158195 47.609653 -0.56071907 22.033001
31.129223 48.687313 -0.57822752 22
31.058043 49.15868 -0.5860787 22.033501
30.960066 -4.095192 -0.32824174 22
31.006685 -3.8975728 -0.23225592 21.894737
31.009569 11.151343 -0.2753543 22
31.037586 11.254934 -0.080091707 22
31.049891 27.550026 -0.17547177 22.0205
31.081881 27.771736 -0.32734379 22.011375
31.106079 28.19088 -0.2667658 22.0105
31.131718 28.470394 -0.33919522 22.011625
31.003469 28.860842 -0.32580408 22.005278
30.816349 42.347927 -0.26145759 22.029499
30.964186 43.633575 -0.39081639 22.0385
30.835297 44.13158 -0.11589288 23
30.846594 44.585762 -0.11926643 23
31.184395 48.347172 -0.14424266 23.120001
31.106234 48.71896 -0.14866318 23
30.969727 48.803371 -0.15044151 23
30.84094 -4.0957031 0.25419533 23
31.006256 -3.9047515 0.23904695 23.075001
31.008604 11.143329 0.1368475 23.092072
30.930441 11.293176 0.23335163 23.018084
31.049179 27.504082 0.3190718 23.064499
31.071711 27.764725 0.20432545 23.031401
31.11026 28.151978 0.086204112 23.08275
31.13932 28.492378 0.21631289 23.031101
30.972878 28.870354 0.18367636 23.02685
30.83502 38.627415 0.28165278 24.057501
30.933184 40.527657 0.31350258 23.5
30.818855 41.999718 0.25436652 23.031
30.982903 42.309055 0.33522069 23.122999
30.885187 42.544086 0.11107606 23.0695
30.994707 42.937817 0.24486953 23.054501
30.935747 43.546093 0.25981259 23.0315
30.99947 44.274887 0.17744671 23.021002
31.086653 44.449329 0.19873236 23
30.999792 44.959293 0.25067803 23.0175
31.122564 45.85825 0.14255269 23.077999
30.955425 48.221729 0.15968505 23
31.015055 48.668934 0.19791836 23.013626
31.027561 -3.8986521 0.63499552 23.972223
31.018908 11.148549 0.63817078 24.666666
30.981676 11.311719 0.59986079 23.90625
31.077452 27.758869 0.71909881 24.0075
31.110481 28.259579 0.55525786 23.5105
31.141808 28.486719 0.73137665 24.007668
31.005901 28.862556 0.66075325 23.752937
30.80422 32.926472 0.76696926 24.049
30.818781 35.835209 0.79036939 24
30.876055 36.573517 0.45515057 23.122999
31.005949 38.192188 0.4630861 23.123501
30.98773 38.995941 0.53308493 23
31.095007 39.859196 0.44686946 23.080502
31.035383 40.599064 0.51099944 23
31.055933 44.709187 0.45405012 23
31.065035 -4.0564294 0.82640821 24
31.006163 -3.9125206 0.99823076 24.950001
30.978193 11.136593 1.0258789 25.877787
30.99946 11.304671 1.0176958 25
31.038984 27.493914 1.0520835 24.064499
31.042753 27.734898 0.98358393 24.067249
31.084276 28.093626 0.99288416 24.087999
31.113825 28.482834 0.99788517 24.06625
30.959866 28.88596 0.94310558 24.049
30.999693 38.792095 1.0010258 24.029499
30.9519 38.964695 0.99863195 24.383001
30.985674 39.788685 1.1021179 24.033501
30.989283 40.128139 1.1067456 24.0305
30.971638 40.570667 0.98493427 24.212399
31.171494 43.694275 1.1319026 24
31.057844 44.575459 1.0304481 24.01
30.917372 45.056156 1.1495013 24.0625
31.050316 48.745621 1.0622705 24.018167
31.174444 -4.0189052 1.382863 25
30.998964 -3.9092116 1.4192933 25.885714
31.181316 3.0855241 1.5256947 27.532499
31.019907 11.152835 1.4462788 27.1
30.989494 11.311352 1.4214975 25.944445
31.02911 27.518089 1.5368369 25.0205
31.071739 27.777805 1.2846075 25.011375
31.105526 28.301334 1.3877715 25.014669
31.130936 28.49296 1.2957164 25.007833
31.002918 28.852039 1.3497545 25.005278
30.808489 32.786148 1.3363496 24.114
30.8132 35.80547 1.4909509 25
30.91308 36.641129 1.4803473 24.122999
31.044407 38.265205 1.521606 24.123501
30.986427 38.990677 1.3060714 24
31.050013 40.565674 1.3191756 24.007126
31.073923 44.592953 1.2671676 24
31.008198 44.9837 1.2300544 24
31.04031 48.586105 1.3535879 24
31.123493 -4.0126433 1.943848 26
30.991753 -3.9127388 1.7302235 26.794117
30.98793 11.13567 1.8768975 29
30.989233 11.292327 1.7553099 26.700655
31.097401 27.758711 1.7473748 26
31.078381 28.232574 1.7723253 26
31.008368 28.464773 1.7752802 26
31.020159 28.847097 1.7892014 26
30.915361 38.656475 1.7563337 25.029499
30.967007 40.566788 1.8008049 25.020666
30.87838 42.111355 1.9061145 25.031
30.873411 42.461178 1.7962551 25.0695
31.088945 43.584866 1.9304595 25.077499
31.002535 43.676704 1.9787244 25.0315
31.042875 44.001827 1.8549517 25
31.074343 44.523731 1.9101583 25.0175
30.805233 81.634911 1.9228053 24.084999
31.018114 -3.8893218 2.1899061 27.613636
31.048328 11.12583 2.2282708 29.115999
31.021585 11.318905 2.140034 27.772728
31.178028 25.557144 2.2580597 25.1005
30.940613 39.012661 2.0859938 25
30.836958 40.650402 2.1677792 25
30.886702 42.060787 2.0528917 25.038
31.119194 42.868069 2.2949996 25.029499
30.916571 43.736053 2.2531011 25
31.033966 44.575718 2.1225257 25
30.951916 45.056934 2.1527646 25.041666
31.154928 45.970409 2.0990531 25.055248
31.188665 48.443211 2.2888279 25.120001
31.106403 48.803471 2.2992733 25
31.029404 49.251541 2.2155206 25.0355
31.140543 -4.0854888 2.6130712 27
31.015402 -3.8538823 2.5440679 29.240854
31.048698 -3.4212379 2.6066926 28.752501
31.02631 -2.8543041 2.5646391 28.095751
30.825298 -2.6146431 2.6377559 30
30.945911 -2.2676105 2.6149914 29.365499
30.997454 9.2905874 2.6197999 29.064251
30.907248 9.9622068 2.632746 28.115
30.975201 10.243306 2.6570284 29.333334
30.86927 10.500156 2.6662955 28
31.097202 11.084808 2.5878768 30.671959
31.00481 11.269133 2.4923391 28.342377
30.820467 41.472958 2.7206862 25
30.902777 42.195904 2.6006072 25.122999
31.052073 43.824009 2.6912141 25.5
31.068232 44.221497 2.7299857 25.666666
30.971764 44.679371 2.7916706 26.07
30.858871 47.195404 2.509824 25.1145
30.863335 47.870872 2.5397012 25
30.874477 48.117031 2.5468683 25
30.870331 43.44669 2.8874321 26.035
30.852215 43.826069 2.904484 26.032
30.955521 44.228207 2.9539056 26
30.988106 44.686695 2.9481909 26
30.979694 45.018223 2.9568145 26
31.028164 45.468605 3.0256102 26.058498
31.175623 47.096828 3.0593939 26
31.173944 47.465832 2.9866633 26.070499
30.80686 44.577362 3.2641509 26
30.837559 41.517159 3.8478568 26
30.940769 42.27932 3.7398896 26.122999
30.907969 43.500099 3.6791527 27.0315
31.046286 43.94836 3.8140328 26.515999
30.999887 44.298401 3.8127828 27
30.996836 44.63028 3.8665316 27
30.975603 45.013866 3.8409834 27
31.197577 42.999199 4.0256839 27.029499
30.872383 35.614304 4.432827 29.028
30.937151 40.594402 4.7384639 27.122499
31.043825 44.624912 4.7283554 28
30.978867 45.025051 4.7377787 28
30.944609 28.926725 4.8489966 31.02375
31.185574 42.97541 4.8954587 28.029499
31.086693 44.727692 5.1383061 27.120501
31.0881 42.687439 5.3375134 29.03125
30.88608 43.461914 5.4055085 29.0315
30.962053 43.684574 5.5349121 29.0385
31.085735 44.558342 5.571795 29
30.802996 42.305286 5.6479011 29.029499
31.044968 44.541668 5.6540852 29
30.945993 44.961868 5.6214142 29
31.098497 47.527584 5.9914813 29.033001
31.137278 47.330784 6.0393834 29.039499
30.927402 9.5471582 6.6984038 31.153
31.183926 -2.48912 6.8236928 31.132999
31.193489 11.252192 6.8061032 31.0895
31.06365 13.690412 7.0614882 31.1355
31.370089 -4.0004306 -0.43256196 22
31.451315 -3.8432829 -0.45654711 21.372227
31.455292 -3.3208401 -0.48912942 21.0555
31.455063 -2.8752515 -0.50167948 21.080999
31.464487 -2.4564919 -0.50362974 21.081749
31.476126 -2.0389695 -0.50611097 21.0825
31.55941 8.3753872 -0.60195369 21.175501
31.479916 11.128941 -0.44439372 21
31.259716 11.203473 -0.41979894 21.0215
31.253431 47.532898 -0.44799721 22.039499
31.280502 47.916988 -0.51041424 22
31.356552 48.339283 -0.46118811 22
31.586802 52.244987 -0.51830775 22.040501
31.311964 -4.0759649 -0.17075196 22
31.393415 -3.8660901 -0.24664633 21.985456
31.412563 11.10111 -0.24578238 22.0151
31.368299 11.24424 -0.12817124 22.130375
31.570288 56.585793 -0.045979783 23.126499
31.283846 -4.0481372 0.20413867 23
31.412792 -3.878042 0.20017648 22.96578
31.416313 11.127657 0.17661528 23.06427
31.422358 11.248076 0.28272054 23.25
31.248121 28.057634 0.22630906 23.114
31.224569 28.78261 0.34542793 23.112
31.305744 44.305897 0.34645286 23
31.443504 46.576176 0.36622757 23.032499
31.20516 47.057182 0.27218923 23.032499
31.362385 47.85297 0.12243261 23
31.38871 48.310963 0.19992039 23
31.265091 48.816441 0.14216222 23.078501
31.490437 51.723289 0.16037336 23.113001
31.519869 52.315903 0.21276097 23.068001
31.57328 52.677795 0.14182228 23.079
31.369144 89.389427 0.17123249 23.078125
31.344645 -4.0635934 0.64904845 23.375
31.381079 -3.8806736 0.59086084 24.065218
31.416178 11.103243 0.67866671 24.072077
31.400604 11.258184 0.60552132 23.90909
31.270826 42.833241 0.44422436 23.038
31.376745 43.355366 0.51929682 23.01475
31.370308 43.615345 0.44914624 23
31.224806 44.432545 0.45348176 23
31.375433 48.394714 0.48093867 23
31.581219 52.243645 0.50946742 23.040501
31.312418 -4.0552549 0.89434236 24.5
31.389116 -3.8814199 1.0037032 24.906403
31.445065 11.138596 1.0632147 25.373503
31.402899 11.252798 1.010767 24.923077
31.266455 28.076679 1.1826812 24.114
31.252831 42.793507 1.0982612 24.031
31.349104 43.372746 1.1943356 24.0315
31.297642 43.654598 0.97851205 24.0695
31.362492 44.388931 1.0528105 24.077499
31.334545 44.465553 1.0481795 24
31.467901 48.342617 1.0717003 24
31.200865 48.440228 1.0670054 24.120001
31.266081 48.824596 1.1492329 24.078501
31.551849 52.264896 1.1233371 24.055
31.262266 -4.0713973 1.4400872 25
31.389328 -3.8790081 1.4227121 25.801096
31.44063 11.114816 1.3998789 25.97752
31.393936 11.258309 1.4454985 26
31.223883 28.784067 1.2577337 24.112
31.270971 42.840683 1.2691821 24.038
31.418388 43.36861 1.4136202 24.050833
31.398382 44.396412 1.5216135 24
31.289753 44.448978 1.266765 24
31.538094 46.785091 1.2844445 24.032499
31.413752 48.376827 1.3740442 24
31.371624 48.505089 1.3626703 24
31.475355 51.713585 1.4315196 24.113001
31.557272 52.312763 1.4282315 24.034
31.506958 52.539997 1.3410212 24.097
31.554441 56.579212 1.3572198 24.126499
31.438931 -4.1476712 1.6047403 24
31.393766 -3.8931246 1.7950054 26.684593
31.469917 -3.5434358 1.6943073 25.088501
31.236387 3.3122563 1.8272935 29.038
31.408094 11.152548 1.7759709 27.0135
31.413851 11.262786 1.765956 26.714285
31.305143 25.455452 1.9844249 26.015499
31.230503 -4.1185231 2.2147241 25.5
31.369698 -3.8859687 2.2006443 27.654419
31.235611 -3.2144499 2.2752709 26
31.340557 -2.6142955 2.2803178 26
31.425066 -2.1226106 2.2849085 26
31.436066 11.099636 2.2072835 28.018299
31.405172 11.262009 2.0917857 27.5
31.208458 25.483658 2.0016775 26.018499
31.347204 43.374378 2.0454872 25.0315
31.417292 43.611492 2.1419353 25
31.297129 44.219158 2.1682687 25
31.247229 44.529007 2.0226181 25
31.577694 46.952202 2.3100324 25
31.428637 47.417088 2.2173333 25
31.451107 48.341644 2.0391586 25
31.292387 48.917175 2.169493 25.078501
31.266075 -4.0370007 2.5243769 27
31.314835 -3.81143 2.5621629 28.495678
31.421501 -3.4082499 2.6461546 28.608751
31.338179 -3.0438704 2.6523924 29.632599
31.421719 -2.6222184 2.6857646 29.0305
31.487638 -2.1810184 2.6968529 29.303213
31.393579 -1.7763696 2.5970387 30.384333
31.403194 9.0500393 2.6152303 29.3113
31.42012 9.4334335 2.6562257 30.392584
31.384188 9.7612972 2.6424921 30.572498
31.358067 10.093766 2.665292 31
31.410109 10.623797 2.6592653 31.0165
31.439331 11.063588 2.585618 29.729773
31.375937 11.239443 2.5417607 28.446831
31.222212 44.336193 3.8824346 26
31.316214 44.498718 4.7164054 28.007875
31.41613 44.395397 5.0816379 27
31.254419 44.412682 5.0745287 27
