# .PCD v0.7 - Point Cloud Data file format
VERSION 0.7
FIELDS x y z intensity
SIZE 4 4 4 4
TYPE F F F F
COUNT 1 1 1 1
WIDTH 1172
HEIGHT 1
VIEWPOINT 0 0 0 1 0 0 0
POINTS 1172
DATA ascii
-1.7180426 -2.2366705 -0.57595944 15
-1.6932763 -0.36136171 -0.61012572 16.299999
-1.7241935 0.71116346 -0.49152771 19.25
-1.749391 0.84519237 -0.52923876 17.35
-1.6957564 1.7167906 -0.68313366 14.666667
-1.8143511 2.1426749 -0.69704771 15.666667
-1.628697 2.7874146 -0.59749138 15.5
-1.6509956 2.8088732 -0.60117626 15.166667
-1.6839592 -9.3620853 -0.3936536 21.0375
-1.7256858 -5.3300042 -0.1094533 22.0315
-1.8726521 -4.9080496 -0.19587424 22.115835
-1.6519247 -4.4656415 -0.0049703731 22.82975
-1.7861017 -4.1538401 -0.14175364 22.25
-1.8049071 -2.2302909 -0.36237249 20.076374
-1.7967789 -1.6673627 -0.044488803 23.151501
-1.7230043 -1.3682894 -0.1783722 20.45779
-1.7734549 -1.1387304 -0.20550367 21.442917
-1.8781526 -0.1487204 -0.31654811 21.143999
-1.714379 0.25028586 -0.20599969 21.652626
-1.7758502 0.67946535 -0.22975923 21.147593
-1.7336885 0.82747406 -0.24383479 20.644567
-1.6347005 2.7932799 -0.16131523 21
-1.6145453 2.8935246 -0.24903518 20.166666
-1.6392475 4.5362716 -0.00027526938 23.401001
-1.6675817 -6.5322695 0.33540013 25
-1.7229476 -5.3462143 0.11691065 23.520248
-1.8227597 -5.1078854 0.052198432 23.0285
-1.6562439 -4.4988351 0.068485476 23.0165
-1.7188203 -4.2331538 0.27868205 24.5
-1.8282235 -2.309895 0.23621196 25.580059
-1.9773748 -1.771438 0.16126718 25.141281
-1.7796094 -0.14187111 0.27154365 25.111113
-1.7186012 0.17285973 0.2255235 25.812834
-1.7366729 0.72314131 0.19286691 24.711956
-1.746684 0.83056474 0.15784119 24.554937
-1.6140221 2.8273842 0.13191383 24.7875
-1.6009777 4.4942808 0.33885145 26.157
-1.6489493 5.3208656 0.28767505 25.089333
-1.6733897 -6.5270567 0.57498729 26.5
-1.7524321 -5.5343218 0.68691266 27.344
-1.6792607 -4.6046844 0.77590126 27.08
-1.8197391 -4.193964 0.67249024 26.802752
-1.6022158 -2.8977225 0.46528438 29.0305
-1.7494099 -2.4595606 0.59313315 28.54775
-1.8210368 -2.3509061 0.54705393 28.624908
-1.8055691 -0.16911416 0.58557498 27.395834
-1.741384 0.20008191 0.57519048 27.772001
-1.7185137 0.67884421 0.62120903 28.270397
-1.7864567 0.83519799 0.64281869 29.004831
-1.7275903 5.3133059 0.69540292 28.381416
-1.6670897 -6.5211825 0.97818959 29
-1.9928493 -5.9804506 1.009919 29.032
-1.7846308 -5.4302816 1.0422078 29.464401
-1.7355974 -4.9519916 1.0246546 29.58309
-1.7182207 -4.6514716 1.033471 29.282722
-1.8301743 -4.1586475 1.0644187 29.055334
-1.7098038 -3.9442673 0.91863298 28.158001
-1.7807684 -2.4907389 0.9631108 30.120874
-1.8964442 -2.3495057 0.88887727 29.328943
-1.8100398 -0.064063415 0.82960916 29
-1.8200191 0.22106208 0.85594136 29.65275
-1.7248704 0.63529581 0.8385756 30
-1.713719 5.3058496 0.91732836 29.636181
-1.6615982 -6.4988828 1.3014747 31
-1.9680221 -6.1744723 1.3732443 31.032499
-1.7469115 -5.4428749 1.2861377 31.0205
-1.8015679 -5.0019455 1.3703002 30.449751
-1.7027458 -4.5773373 1.304062 30.793938
-1.7942395 -4.0894246 1.3185561 30
-1.6819507 -2.4234278 1.2639545 30.571428
-1.7576154 -2.3395977 1.2966696 31
-1.7139883 5.3020086 1.3331081 31.1385
-1.2775102 5.2669368 -2.9634709 1.5
-1.2594172 5.2642684 -2.6669779 3.3333333
-1.5284107 -2.6608732 -2.2731302 0.75
-1.4392537 -2.9531589 -1.789959 1.9920635
-1.5423499 -2.4217818 -1.6133136 1
-1.4383808 -2.9808328 -1.4455886 5.4444442
-1.5639999 -2.4231498 -1.4910085 2.5
-1.5953507 -2.3860476 -1.5113103 3.5
-1.2007159 -4.5529556 -0.83290547 16
-1.3263028 -4.246139 -0.86988342 17.666666
-1.4915574 -2.9376521 -0.86270905 12
-1.4712448 -2.5915992 -0.87290132 10.75
-1.4974176 -2.084739 -0.85691506 9.5555563
-1.5412718 -1.6784396 -0.87906355 8.75
-1.5125717 -1.2749327 -0.88212597 7.1666665
-1.3701421 -1.0084169 -0.88417166 8.1388893
-1.335047 -0.54167086 -0.88591933 8.3000002
-1.3211886 -0.25460374 -0.88551742 9.833333
-1.455148 0.25115156 -0.87703574 2
-1.3463943 0.72890437 -0.88102877 6.1666665
-1.3605893 0.9258095 -0.86664546 9.65625
-1.3918705 1.3668067 -0.89177328 12.404761
-1.2554315 1.8486817 -0.90119529 11.083333
-1.4424007 2.1437786 -0.90488631 12.099999
-1.3572254 2.6339071 -0.8820017 12.314286
-1.5749546 3.0003164 -0.83444983 14.5
-1.463264 3.509825 -0.87137973 16.5
-1.3821132 3.6406825 -0.8595432 16
-1.2198734 4.2267427 -0.80599976 17
-1.2903196 -6.5426426 -0.52978653 19.5
-1.4521794 -5.3160038 -0.46215841 19.5
-1.4418662 -5.1296244 -0.63758588 19.08075
-1.3237327 -4.6584129 -0.4720898 19
-1.4255718 -4.3119526 -0.60395098 18
-1.4873735 -2.9294031 -0.46191081 17
-1.5414536 -2.5266247 -0.64407176 13.8
-1.4905562 -2.1687815 -0.67545444 12.616666
-1.3066568 -0.05336903 -0.58735532 13
-1.3230984 0.24094193 -0.5358206 6.6666665
-1.210133 0.48267072 -0.67412961 18
-1.2978764 0.98883027 -0.58429718 13.714286
-1.3973475 2.7683427 -0.63474631 16.049999
-1.5784932 3.0557139 -0.51312149 18.166666
-1.5453795 3.3825724 -0.50808382 19.316668
-1.4122051 3.6514664 -0.57370639 18.686111
-1.2689474 4.293335 -0.62722659 18.666666
-1.311074 -6.499752 -0.17763557 21.666666
-1.3240529 -6.3330836 -0.11608047 22.179583
-1.4689132 -5.3605165 -0.31519565 20.5
-1.4736543 -5.1190476 -0.093562372 22.009918
-1.5753589 -4.3068299 -0.15281495 21.527
-1.3787891 -2.9741628 -0.065425321 22.280643
-1.3356416 -2.5733907 -0.051276602 22.296875
-1.3890412 -2.2565634 -0.18612255 21.384501
-1.4325746 -1.7381357 -0.14486511 20.849916
-1.3594868 -1.3567182 -0.1335438 21.007215
-1.2630521 -1.153614 -0.20146766 19.584625
-1.4394912 -0.095498398 -0.19903237 21.654751
-1.3161857 0.23990735 -0.11276209 20.408937
-1.2854457 0.59583253 -0.11331317 21.909122
-1.3104105 0.99261093 -0.2124795 19.620565
-1.4245747 2.773329 -0.22535513 20.552084
-1.5742558 2.9605119 -0.12303265 21.9
-1.546479 3.4278579 -0.18918094 21.792046
-1.3984356 3.6575189 -0.15063451 22.086512
-1.3632696 4.4355583 -0.21630986 21.87225
-1.3488475 -6.6132669 0.29685566 24.625
-1.4107262 -6.3276253 0.087332048 23.519125
-1.4662496 -5.0690622 0.27863127 24.620943
-1.5915732 -4.3340812 0.31023467 25
-1.3872572 -2.9873846 0.22789127 24.91637
-1.4679871 -2.5683084 0.27623886 25.841282
-1.4731032 -2.198637 0.24916802 25.696846
-1.3856503 -1.6981746 0.010188317 23.19125
-1.3609829 -1.3522202 0.017647794 23.155293
-1.5004609 -0.08759106 0.083404727 23.817167
-1.3028131 0.19979018 0.22975411 26.295355
-1.2750372 0.58866227 0.1443028 25.031677
-1.3171858 1.002933 0.21782269 26.576267
-1.2379113 2.7864676 0.19746616 25.396187
-1.515137 2.8236566 0.16324644 25.068398
-1.4592749 3.6517551 0.048242457 23.648251
-1.4324511 4.5322862 0.088565566 23.915625
-1.573436 5.1492143 0.12497015 24.143499
-1.4202923 -6.6509557 0.64565092 26.642857
-1.5864301 -4.3463054 0.65744191 27.6
-1.4521959 -2.94348 0.58892715 28.166374
-1.5165217 -2.5204356 0.56016833 28.523336
-1.5425158 -2.3524146 0.50690359 29.009165
-1.3871887 0.58524793 0.48753187 28.556065
-1.2979236 1.0043929 0.5733031 29.244154
-1.4888459 4.5289602 0.43176064 26.713299
-1.4174366 5.2892275 0.63805717 27.620136
-1.4180514 -6.6367154 1.040713 29
-1.5649332 -4.3367448 1.0058271 30.200001
-1.4302566 -2.9667761 0.94278228 29.60174
-1.4879531 -2.5381691 0.91752249 29.925926
-1.5750087 -2.3707647 1.0394665 29.5
-1.2921208 1.0180302 0.92073023 30.75
-1.4012288 5.2742381 0.97686005 30.092192
-1.3984871 -6.6285005 1.3370146 30.777779
-1.4362359 -2.9844344 1.3100142 30.761166
-1.3898127 -2.747649 1.3005859 30.918833
-1.5506881 -2.3701825 1.2940153 31
-1.5212317 5.280817 1.2598594 31.143002
-0.96427119 5.243372 -2.9099736 1.7
-0.99372113 5.2664165 -2.5732172 4
-0.96102369 -3.0029657 -1.7768579 1.2901235
-0.98637974 -2.9967134 -1.4497546 4.7361112
-0.86668253 -6.1716142 -0.86863619 17
-0.86997294 -5.8799558 -0.83926964 17
-1.0993643 -4.6765003 -0.87437725 16
-0.83384454 -4.0139012 -0.88561779 15
-1.0533125 -3.8379369 -0.92911559 16.799999
-0.84377849 -3.0817411 -0.83158624 15
-0.94812483 -2.6505163 -0.91651517 17
-1.0293305 -1.3025342 -0.88163573 2
-0.99014467 -0.97387564 -0.87418711 7.2638888
-1.0246278 -0.53970855 -0.89407897 9.4444437
-1.0349576 -0.24373287 -0.89794219 9.166667
-1.0331843 0.16875221 -0.88629538 12.1
-0.9965356 0.63693655 -0.88765681 11.229167
-1.0572393 1.0087004 -0.89090681 8.5694437
-1.083537 1.4308438 -0.90090227 8.4444437
-1.1131504 1.7918468 -0.89588302 12.325
-0.9394787 2.2101119 -0.88618171 10.818121
-1.0328695 2.5848482 -0.88629782 13.716667
-0.89552224 3.0309551 -0.83968365 16
-0.98260623 3.4871318 -0.86341274 14.5
-1.1918044 3.6007328 -0.85168684 16
-0.92888457 4.1964965 -0.83933419 16
-0.80646634 4.7185173 -0.85671562 17
-1.1568524 -6.4948049 -0.64385736 18.75
-0.96916801 -6.3259025 -0.51191664 19.5
-1.0546432 -4.0321698 -0.57855237 18
-1.0017374 -3.64821 -0.62882113 17
-1.0418142 -3.5568566 -0.76228404 19
-0.90746713 -3.0525174 -0.57691389 18.492064
-0.9048391 -1.7168963 -0.46260419 13
-0.80473804 -1.243237 -0.43638256 14.5
-1.0941968 -0.098312818 -0.53772366 12.25
-0.93835765 0.26826531 -0.5646264 10.132954
-0.99118048 0.53404945 -0.53563154 12.483724
-0.85014135 2.1774356 -0.58287191 13.566666
-0.91306293 2.7219329 -0.60530657 16.114639
-0.93386614 3.588124 -0.63437378 16
-0.98846269 3.639533 -0.6579113 17.857143
-0.83327281 4.2599549 -0.61684805 17.75
-0.88971406 4.4661269 -0.70989335 18
-0.94713873 5.227046 -0.56908506 19
-1.0893468 7.5568366 -0.40436196 21.1315
-1.0909704 -6.4377527 -0.1344787 22.013334
-1.0262386 -6.2749949 -0.16036719 21.85675
-1.0488182 -5.6823344 -0.16775057 21.535
-1.0798987 -4.630404 -0.20647694 21.030001
-0.9530372 -3.7125776 -0.17253411 21.0305
-0.95400292 -3.0406513 -0.12646095 21.721098
-1.0010155 -2.1580455 -0.090943463 21.682831
-0.91189522 -1.7486408 -0.11477489 21.105074
-0.96032476 -1.4014788 -0.15383135 20.277552
-1.1212578 -1.1782159 -0.19028114 18
-1.0734929 -0.024684951 -0.15961136 21.904762
-1.0124278 0.2343567 -0.19196256 19.477207
-1.0350763 0.5392071 -0.18619819 19.141474
-0.86198258 1.8249147 -0.050892729 22.150749
-0.85316604 2.0931795 -0.1780497 20.407038
-0.96430218 2.7201862 -0.19156142 21.185629
-0.97919428 3.6299279 -0.22707124 21.222401
-0.95629936 -6.5418043 0.15468532 23.860916
-1.0569347 -6.2691202 0.14660825 23.885714
-0.97729033 -5.4388642 0.11805358 23.511667
-0.96614933 -3.0188675 0.23362975 25.166193
-0.97535843 -2.2116299 0.068568982 23.932045
-0.88364428 -1.727267 0.10086862 24.388279
-1.02856 -1.5796597 0.092979595 24.667835
-1.0777196 -0.05219844 0.14910725 24.327791
-1.0626115 0.26605475 0.15461396 24.996361
-1.0768024 0.54318082 0.16913393 26.013248
-0.8726989 1.9339535 0.22345547 27.482285
-0.86223757 2.0675097 0.15394142 25.440899
-0.92981392 2.7439649 0.13682985 24.973066
-0.88030595 2.8484766 0.21070287 26.027124
-0.82834113 3.3993142 0.23789629 25.128
-0.99084628 4.5444384 0.16524754 24.464785
-1.1259429 5.1224456 0.26249373 25.118999
-0.92259061 5.2430425 0.25646082 25.175056
-1.015447 -6.540154 0.75712878 27.820301
-1.1221032 -6.2311945 0.61810255 27.088049
-0.96758813 -3.0056617 0.58760262 28.66749
-1.1098231 0.30622703 0.57797617 28.1495
-1.0747383 0.50174052 0.50705069 28.892857
-1.1887207 0.80985403 0.47607851 30.5
-0.86572492 1.8887922 0.49378368 29.948999
-0.87621987 2.013006 0.48694548 30.161501
-0.96913952 4.5051942 0.51311326 27.24575
-1.0295197 5.2556829 0.55216569 27.358648
-1.1320703 7.6086693 0.58929634 26.1315
-1.007882 -6.5705686 1.0687436 29.75
-1.0823312 -6.1633668 0.94317371 29.274567
-1.0027839 -3.0314319 0.94998276 30.014063
-1.1369472 0.36821738 0.87011606 30.5
-1.1320499 0.41845077 0.86783105 30.5
-0.8595258 1.8765126 0.86782044 30.8255
-0.9870106 5.2406082 0.97716606 30.411751
-1.1368738 7.7405548 1.016957 28.471666
-1.0116209 8.2151957 0.93396872 28.145
-1.0612656 8.4412546 0.94083601 28.147499
-0.94167054 9.1751614 1.0071459 28
-0.99686086 -6.5667024 1.2683814 31
-1.0595713 -2.9928188 1.301362 31.0313
-1.1345237 7.7465696 1.474841 30.636501
-1.0352517 8.2751455 1.3461169 30.145
-1.0611765 8.4311457 1.4190434 30.397499
-0.95727956 9.1689434 1.3479263 29.5
-0.95461857 9.1519384 1.6906728 31
-0.58181608 5.1924543 -2.9362581 1
-0.74274313 5.2137899 -2.879684 1.5
-0.56587273 5.1913095 -2.7769873 2
-0.72026443 5.2156343 -2.6833735 2.75
-0.44422901 -3.0281515 -1.6625258 2
-0.56634462 -3.2154429 -1.4537884 5
-0.4781239 -3.0511568 -1.5307924 3.4000001
-0.74762726 -6.1461492 -0.86158001 17
-0.56021166 -5.0488281 -0.8460691 16
-0.57407397 -4.555757 -0.86486155 15
-0.45367244 -4.0650215 -0.87089884 14
-0.40795717 -3.609302 -0.86542642 13
-0.62959045 -3.3916576 -0.8568095 14.733334
-0.60480666 -2.9956474 -0.87274724 15.375
-0.56686938 -2.7451615 -0.85569197 14
-0.58443075 -0.94428772 -0.85485411 9.9296293
-0.63357586 -0.57383949 -0.8909018 12.52
-0.61614668 -0.21798819 -0.88450527 10.3
-0.65435475 0.25998288 -0.87086177 13.833333
-0.65946525 0.54253823 -0.86270624 10.648334
-0.65063339 1.068511 -0.89106059 9.1599998
-0.66635263 1.4234937 -0.89310288 10.083334
-0.5786525 1.7810709 -0.8933605 11.374073
-0.57174283 2.2106524 -0.8628962 11.416666
-0.64343715 2.654238 -0.88035542 12.738889
-0.63546735 2.9945188 -0.88220358 13.416667
-0.63213396 3.328393 -0.8809976 13.944444
-0.50694716 3.8567898 -0.86525267 13.85
-0.71733099 4.1312504 -0.85200137 16
-0.65578973 4.5118971 -0.83564496 16
-0.61702943 4.950304 -0.86783981 17
-0.40485954 -4.7289944 -0.48956177 18.5
-0.7053023 -3.1364949 -0.50544864 18.107143
-0.53216779 -2.3028786 -0.60446119 16
-0.40200281 -1.6802024 -0.41675165 15.5
-0.67594612 -1.2921299 -0.42380422 13.444444
-0.53808957 -1.0422881 -0.60272765 12.175926
-0.65769672 -0.087884799 -0.53661931 2.3966668
-0.78801239 0.2837202 -0.71030098 14.333333
-0.76740658 0.43176416 -0.713265 14.166667
-0.51187843 2.1579018 -0.55738026 14.143135
-0.76902229 2.7150531 -0.57279438 16.85
-0.77621299 3.0322661 -0.79462308 12.5
-0.70725071 3.5422366 -0.59395087 16
-0.52146739 3.8740313 -0.59749478 16.527273
-0.58127528 4.3531203 -0.59132707 18.361113
-0.56241804 4.4799166 -0.65777063 17.833334
-0.45266441 5.1325765 -0.59633553 19
-0.55499125 8.9866791 -0.54980361 21.1455
-0.52037811 9.3379841 -0.72750676 20
-0.68969738 -6.4474669 -0.15067917 22.021
-0.72763145 -6.337831 -0.13707954 22
-0.4066366 -4.6421375 -0.1013452 22.02125
-0.43912137 -3.538136 -0.028529076 22.25
-0.71520507 -3.1125777 -0.15584935 21.555557
-0.75540775 -2.5255156 -0.032497238 23.157
-0.60788339 -2.1174884 -0.14312412 21.216413
-0.57681757 -1.906442 -0.16209185 19.678602
-0.55763805 -1.4103001 -0.17880429 19.114983
-0.54053509 -1.1523257 -0.32916668 12
-0.61843646 -0.14948097 -0.18312038 15.224131
-0.6196211 0.0069684829 -0.30199027 10
-0.50947905 1.9888725 -0.077070594 21.7272
-0.49947041 2.0701311 -0.16705124 20.574026
-0.76800066 2.7094243 -0.2149698 20.681278
-0.62797272 3.5662181 -0.16880953 21.034813
-0.4925161 3.7753661 -0.1690497 21.183214
-0.64072585 4.3663011 -0.21056442 21.708401
-0.46675572 4.5320253 -0.092767224 22.6495
-0.46130186 8.6568604 -0.10692553 23.1455
-0.58240813 -6.6238995 0.30999932 25.042501
-0.64820641 -6.3018427 0.19796218 24.25
-0.43551892 -4.9555812 0.1153914 24.0425
-0.40851155 -4.6520991 0.015222384 23
-0.44623634 -3.5481133 0.20778485 24.7665
-0.70070326 -3.1091383 0.21577591 25.344425
-0.73605949 -2.4230437 0.11777098 24.022499
-0.76151788 -2.1033316 0.095073588 23.666666
-0.79072934 -1.8085603 0.20803507 27
-0.62489194 -0.20563427 0.064778864 25.628876
-0.65576833 0.16763562 0.12776205 28.344002
-0.52101976 1.9525459 0.20281437 26.371725
-0.50064737 2.0392561 0.15270515 25.443022
-0.78582573 2.7488675 0.17519404 24.91534
-0.73713315 3.0383306 0.18425032 25.221981
-0.70795017 3.3555129 0.18141668 24.963875
-0.56806397 3.7800598 0.20869532 25.395514
-0.78524441 4.4508648 0.11173341 24
-0.51678288 5.114459 0.18776275 24.855938
-0.70195562 5.2487588 0.24354626 25
-0.44643551 5.7923479 0.25623956 25.143
-0.67554516 7.2665105 0.37240955 25
-0.41841108 8.5057039 0.10150314 24.1455
-0.60806257 -6.5036254 0.73868257 27.806
-0.59573746 -6.321878 0.58124787 26.834677
-0.4704302 -3.6046131 0.66951013 29.5
-0.71183294 -3.1132591 0.61188978 29.778772
-0.52659732 1.8808594 0.59939766 29.742353
-0.56644189 3.6920121 0.49259344 28.689932
-0.76148856 4.4924431 0.43891901 27.1535
-0.44078797 5.1903524 0.61488819 27.697859
-0.56373596 5.2195396 0.59053338 27.702
-0.65102118 7.31848 0.54790545 26.242428
-0.60392892 9.1350327 0.60533661 26.25
-0.5991599 -6.6161375 1.0589581 29.700001
-0.59130287 -6.2018399 0.90302277 29
-0.79827815 -3.1355641 0.84414822 31
-0.48271987 1.7468497 0.82919705 31.105125
-0.48469815 5.184545 0.94171315 30.266527
-0.64759922 5.2199254 0.9132567 29.872473
-0.5316813 9.1339502 1.0239134 28
-0.6171723 -6.6043091 1.2653824 31
-0.65604806 -2.9894125 1.2677215 31.158499
-0.58372301 9.1354437 1.3535556 29.5
-0.55020565 9.1084833 1.6818734 31
-0.37834218 5.1760025 -2.9160254 1
-0.38217676 5.1726799 -2.7579246 2
-0.29658863 -3.0651267 -1.801831 1.8333334
-0.27431652 -3.036551 -1.5599345 2.8333333
-0.20955998 -4.4778266 -0.84744179 15
-0.15767103 -4.1002893 -0.869362 14
-0.10637284 -3.7133443 -0.85601676 13.333333
-0.17966767 -3.3403037 -0.86893451 12.6
-0.23631513 -2.9279804 -0.85832411 12.333333
-0.18233708 -2.5541613 -0.87820184 12.55
-0.17346531 -2.1078067 -0.86483628 10.861112
-0.00070292986 -1.9770043 -0.88026285 5
-0.1555151 -0.93989545 -0.86183119 10.209524
-0.20373732 -0.47121054 -0.8781665 6.8583336
-0.21900479 -0.1441249 -0.87265491 8.9876537
-0.24647292 0.21876007 -0.86887759 7.9693875
-0.17523706 0.62021917 -0.887429 8.915
-0.24425381 1.1090181 -0.88369352 8.4666672
-0.30504158 1.3648088 -0.88281262 6.75
-0.2354815 1.8457906 -0.88496554 10.133333
-0.24255346 2.2448547 -0.89830846 10.369047
-0.10441312 2.6313698 -0.88050824 10.388889
-0.22562966 3.0201557 -0.90249604 12.5
-0.24939403 3.3934033 -0.89946705 13
-0.20046015 3.8184524 -0.91274637 14
-0.31278986 4.2409549 -0.9044202 14.875
-0.35124195 4.6116266 -0.8955195 15.5
-0.20780753 5.0101571 -0.8776713 16.166666
-0.14716555 5.2692356 -0.87010092 16.5
-0.24606568 6.3703575 -0.95532852 17
-0.14099312 6.5679245 -0.92372215 17.333334
-0.092414491 7.102303 -0.86419213 18
-0.10858593 -6.0523272 -0.42340919 20
-0.21086332 -5.4803176 -0.76459855 17
-0.11815034 -4.9761267 -0.47726107 18.75
-0.26510319 -4.7179914 -0.57835668 17.700001
-0.030763999 -4.0922275 -0.60710484 16.666666
-0.014195872 -3.9948456 -0.46726274 18
-0.21378733 -2.4002354 -0.59011954 15
-0.23130605 -2.2728405 -0.55418372 15.607142
-0.18465057 -1.8939204 -0.56085479 14.310526
-0.086992458 -1.4182485 -0.52429903 13.636106
-0.17999591 -1.0890043 -0.57571918 11.089934
-0.19398411 -0.047781892 -0.61345488 7.2850337
-0.024410954 1.1374838 -0.46385235 7.8599997
-0.081142403 2.6532798 -0.56476367 15.5
-0.37390479 3.830579 -0.57821423 16.6
-0.3500371 4.5022082 -0.57645237 18.225
-0.25228772 5.1097217 -0.54598665 19.07143
-0.15623449 5.3298311 -0.59235328 18.783333
-0.2387924 5.9872208 -0.6740514 19
-0.28379586 6.6084204 -0.73515552 19
-0.06022254 7.1594815 -0.7080524 19.111113
-0.27446872 9.0080833 -0.45599535 21.093666
-0.19478498 -6.660965 -0.14886731 22.044167
-0.17555684 -5.8945918 -0.3953177 20
-0.19419444 -4.9679332 -0.25325087 20.771751
-0.29480636 -4.720356 -0.18529421 21.260876
-0.011410822 -4.0730801 -0.26799044 20.125
-0.014213038 -3.998307 -0.2796886 20
-0.18614219 -2.1113229 -0.18501173 20.220539
-0.19310746 -1.8551778 -0.1926681 19.581446
-0.20280924 -1.4447441 -0.24501492 18.019009
-0.30139774 -1.1324921 -0.35586143 12.083333
-0.16675204 -0.10482091 -0.19257699 17.406603
-0.15586565 0.15655799 -0.19219981 17.446083
-0.021580836 1.1480408 -0.17904727 16.959499
-0.0027642958 1.2523093 -0.087849274 20
-0.057727743 2.6222656 -0.21536592 20.305574
-0.1596756 3.2320774 -0.17862435 21.479084
-0.28152889 3.8085039 -0.18383811 20.958134
-0.24353822 4.2802062 -0.069419377 22.535166
-0.29915223 4.5127954 -0.20306589 21.555891
-0.27896973 5.060708 -0.21586178 21.618666
-0.14930844 5.3674536 -0.1998643 21.936401
-0.22857566 5.9298191 -0.21382298 22.047333
-0.33477944 6.351315 -0.15762162 22.1315
-0.29818541 6.5557594 -0.21661301 22.145748
-0.34090844 6.9041257 -0.34032807 21.646999
-0.313068 7.8821702 -0.23437513 22.143
-0.29543579 8.2716322 -0.27285439 22.144001
-0.33852252 8.6929493 -0.05481986 23.1425
-0.20635717 8.9581881 -0.24687855 22.070999
-0.2141972 -6.5053415 0.020957099 23.044001
-0.36031461 -6.2888637 0.30470672 25
-0.18563323 -5.3552279 0.24691474 24.955076
-0.30828422 -4.9583325 0.13291173 24.042749
-0.28560355 -4.661881 0.015708005 23
-0.0023373349 -3.96803 0.23106022 25.5
-0.17199776 -2.8062394 0.22699527 24.5
-0.14746688 -1.6790857 0.14555979 25.104488
-0.20151618 -1.5369378 0.18165958 25.987253
-0.1843134 -0.17444038 0.23036836 28.489464
-0.18228798 0.13545239 0.15062331 26.584021
-0.018499963 1.1483141 0.1646354 28.545382
-0.00048332958 1.2464747 0.054018892 24.833332
-0.047735348 2.4892743 0.19055501 25.807537
-0.22418232 3.185416 0.099036954 24
-0.015728334 3.2881875 0.30841088 26.1245
-0.35669941 3.7912204 0.14438581 24.689606
-0.24196284 4.363955 0.072113849 23.82025
-0.20836794 4.453898 0.048447452 23.66275
-0.30410445 5.1073647 0.16140804 24.37686
-0.1944183 5.3069825 0.14495598 24.486065
-0.20856388 5.8165479 0.23769966 25.129601
-0.29348767 6.1852803 0.08370842 23.81575
-0.3170597 6.5795169 0.10033672 24.144999
-0.21452096 7.0618172 0.14845522 24.139
-0.35228431 8.0396862 0.045442645 23.643
-0.24830426 9.0120516 0.072372414 23.593582
-0.33085996 -6.5903163 0.62515551 27.014502
-0.29789406 -6.2378578 0.62579048 27.2176
-0.089266144 -5.851984 0.54591244 27.0445
-0.099284314 -5.5036736 0.64360356 28.0445
-0.0023791026 -4.0106907 0.56354654 29
-0.0043347762 -3.9907851 0.62473249 29.666666
-0.18491575 -2.8146627 0.58101815 27
-0.10191615 -2.7151134 0.66563845 29.507748
-0.038036391 1.2171046 0.5318743 29.1535
-0.13275318 2.6461957 0.49026915 29.995028
-0.14855662 2.9350891 0.46693861 28.403219
-0.1026263 3.3849084 0.4954325 27.790833
-0.27002624 5.1778655 0.62348628 28.041286
-0.23564439 5.2784128 0.50773132 27.160667
-0.2931022 5.9904618 0.72946399 28.142
-0.23285638 9.0926132 0.52120322 25.660563
-0.28982285 -6.6387229 1.0222125 29.514666
-0.28494486 -6.1575046 0.8818841 29.017651
-0.16655646 -2.8082879 0.86357343 29
-0.013171972 -2.7000041 1.1193731 31
-0.30606797 5.1693697 0.95124465 30.562597
-0.17017014 5.3065448 0.98990226 30.63575
-0.24818005 5.9179502 1.0796881 30.645
-0.2210438 9.0894918 0.88616329 27.368834
-0.25655696 -6.6397915 1.261766 31.014833
-0.31692779 -3.0003295 1.222729 31.1595
-0.2526159 9.0905609 1.3652506 29.533333
-0.24915506 9.0723944 1.6828409 31
0.3840934 2.882839 -1.3898032 4.5
0.0088492753 -4.0104909 -0.85254228 14
0.068729393 -3.3667221 -0.84144461 12.666667
0.19703472 -2.9788942 -0.83948028 11.42381
0.2086388 -2.61237 -0.86177176 10.458333
0.15695362 -2.1901686 -0.86606455 10.799999
0.19906847 -1.8487777 -0.87595356 8.3000002
0.11669871 -1.3349489 -0.8519206 10.583929
0.21937613 -1.0201952 -0.85557383 7.4199996
0.30248269 -0.56251198 -0.87885022 10.3125
0.19978063 -0.21747383 -0.87363487 10.630952
0.18135783 0.24488485 -0.87608373 9.779047
0.23159721 0.59959555 -0.88177228 11.226191
0.17514756 1.0635842 -0.87357891 9.6133327
0.22252601 1.3890333 -0.86289239 12.114584
0.1242891 1.8529325 -0.86044431 10.047618
0.23512372 2.2347481 -0.88374764 9.864584
0.27814022 2.6362419 -0.87959868 11.416667
0.21979295 3.0635228 -0.87397873 12.847221
0.27958235 3.4214821 -0.86370224 13.4
0.23673452 3.8064008 -0.91248846 13.6
0.23033637 4.1887584 -0.87495601 14.333333
0.29793441 4.7275853 -0.92176706 15
0.19946222 4.9625721 -0.91093755 15.666667
0.12219664 5.4979472 -0.93317163 16
0.19673777 5.7613225 -0.94711125 16
0.23362389 6.5507884 -0.94844049 17
0.31686017 7.9469414 -0.94446701 18
0.38613662 8.9391165 -0.84317648 19
0.039679501 -3.6222885 -0.50919491 17
0.090474568 -3.2875803 -0.55228686 15.8125
0.24799119 -3.0356791 -0.55065668 15.264882
0.066985682 -1.7831621 -0.66918236 12.1
0.039992686 -1.4229704 -0.62566751 12.138888
0.039048575 -1.1292375 -0.66149968 11.033333
0.3850905 -0.026562806 -0.68143094 6.5714288
0.18956223 1.1354884 -0.49548939 9.8980875
0.12117326 1.2769246 -0.553159 8.7857141
0.17566644 1.8528646 -0.5677315 12.873334
0.021893742 2.6702836 -0.65613741 14.277779
0.063357361 2.9664767 -0.63383543 16.121429
0.25423384 3.3916287 -0.53887874 16.9
0.1933613 3.9898467 -0.5150103 17.714285
0.37755334 8.9941769 -0.52428114 20.5
0.15281101 -5.1932106 -0.30955657 20
0.046176553 -3.7541924 -0.12388413 21.605999
0.094017588 -3.2661726 -0.21354799 20.121212
0.2254288 -3.0519152 -0.13691849 20.791122
0.23196326 -2.2703917 -0.19500475 19.0165
0.20895325 1.1442287 -0.16829899 18.584764
0.12176324 1.2792119 -0.14983635 19.74898
0.19571939 1.8733225 -0.18826844 19.658817
0.045941319 2.6909699 -0.10906282 21.630087
0.086612917 2.9377708 -0.16400479 21.274158
0.20937011 3.329978 -0.19320446 20.80378
0.22271807 3.9466329 -0.24604715 20.333332
0.17134598 4.0510721 -0.28515163 20
0.27911985 7.4762287 -0.3632296 21.136999
0.31942573 8.4532804 -0.18017298 22.158501
0.19137964 9.0147676 -0.18071401 22.2115
0.092731714 -3.2961328 0.20013005 25.537001
0.21788478 -3.0618553 0.20297667 25.328279
0.094047412 1.161346 0.12012359 25.454903
0.10068502 1.2726659 0.19304021 26.44964
0.16703045 1.8857532 0.20827939 26.329866
0.040950704 2.6668041 0.14518252 24.986296
0.11579058 2.9748845 0.17470895 25.128103
0.23431753 3.2762809 0.18402106 25.20945
0.16905983 3.8769696 0.14013059 24.270332
0.37848359 8.5512733 0.19874582 24
0.23704998 9.0158758 0.098498948 23.544832
0.099002704 -3.276232 0.54700869 30.011375
0.21654634 -3.0523064 0.56849408 29.52166
0.027969921 -2.6452878 0.70638734 29.666666
0.044173248 1.1757773 0.62971634 29.916666
0.14794886 1.3114933 0.56768835 30.139317
0.19039725 1.8761942 0.49390516 29.837259
0.043457836 2.9100356 0.41816825 27.815084
0.22835471 3.2273111 0.5756529 29.9
0.17443308 3.9531167 0.47457078 27.622749
0.29634869 9.0436115 0.51746958 25.5
0.23236057 -3.0422332 1.0412028 30.16
0.024282964 -2.6669688 0.90243649 29.5
0.20056508 9.0519361 0.93774313 27.545832
0.13754609 -3.0749238 1.2136415 31.161501
0.18883176 9.0458117 1.357487 29.56875
0.21631277 9.0194559 1.6851623 31.0905
0.6750688 5.0340662 -2.9522991 1.5416666
0.70477527 5.0555458 -2.5952957 3.75
0.71035826 -3.2003224 -1.6860039 3
0.74481416 -3.1554253 -1.7650509 1.6875
0.72875565 -3.1546326 -1.5825168 3
0.60215741 2.7879264 -1.396215 3.5
0.67667353 2.9162536 -1.4173548 3.8
0.6680038 -2.9363544 -0.86005944 10.833334
0.54653966 -2.5729337 -0.85689259 9.5654755
0.62112159 -2.157984 -0.86018848 9.5357141
0.57708853 -1.9160031 -0.86773753 9.291667
0.50549746 -1.3955486 -0.84828544 5
0.59553409 -0.92847872 -0.87555724 10.633333
0.5702582 -0.57699335 -0.86833829 6.9166665
0.61475551 -0.16068847 -0.86339736 8.6190472
0.56035954 0.19781198 -0.86524081 7.4416671
0.63287973 0.66143173 -0.87616187 6.5
0.63754058 1.036008 -0.85527575 9.2222223
0.61091608 1.4699321 -0.87862188 7.4488249
0.58174753 1.8394291 -0.87105483 9.375
0.582385 2.182631 -0.88758218 9.7333336
0.64496922 2.610836 -0.89057612 10.5
0.61204916 3.0139303 -0.87765551 12.016667
0.65968174 3.4265153 -0.88161796 13
0.58548343 3.798636 -0.91260576 13.4
0.60767269 4.781867 -0.91495329 15
0.58752829 4.8074112 -0.91219294 15
0.43064255 5.5860548 -0.92584896 16
0.59673774 5.7396998 -0.94807875 16
0.70668834 6.7981982 -0.9605633 17
0.52843213 7.9490795 -0.94415557 18
0.51754838 8.9153843 -0.84069121 19
0.59942871 -2.9100175 -0.58430344 14.464315
0.56547552 -2.7147307 -0.6227932 14.538889
0.47717237 -0.027260417 -0.49598062 10.055556
0.61215466 0.039663557 -0.64081669 5.3333335
0.54392815 0.97444171 -0.58871758 11.985374
0.66994095 1.8728423 -0.64942437 11.085965
0.60494566 2.2696311 -0.63476461 14.333333
0.58445311 2.4686916 -0.43318087 16.5
0.70921606 3.1556756 -0.53775012 16.25
0.75924492 3.9559138 -0.50021613 17.833334
0.67742985 5.1078906 -0.58937925 18.25
0.49760702 9.0093622 -0.46705207 20.924082
0.78329366 -6.2948828 -0.2705704 21.0485
0.57549483 -3.0047884 -0.18411121 20.095243
0.60152942 -2.5973148 -0.1702912 20.127916
0.49206251 -0.098060764 -0.22176157 16.718187
0.54863507 0.16241767 -0.11436536 19.513384
0.58616406 0.89049095 -0.17436951 18.255379
0.63043696 1.2595508 -0.092829011 20.908121
0.68404675 1.8781663 -0.19987889 19.184652
0.70473254 2.2817473 -0.20648783 19.2785
0.69673461 2.4724898 -0.14588559 20.863886
0.64668632 3.1793876 -0.16128057 20.929001
0.67729545 3.20842 -0.21175304 20.5
0.75971681 3.910151 -0.23866147 20.5
0.67035317 5.1603813 -0.18109486 21.654224
0.49020591 8.4466496 -0.1741228 22.166666
0.62657827 -3.2179809 0.22362228 25.035
0.60591888 -3.0676148 0.16879229 24.738493
0.50316626 -0.1661284 0.2127247 28.138554
0.52346849 0.1987271 0.18331908 27.56098
0.55739671 0.86375201 0.16690952 25.926647
0.76797634 1.2507489 0.13305913 26.067999
0.76331276 1.7656597 0.2242343 28.123335
0.77586734 2.313468 0.17060205 26.12575
0.76013368 2.4726863 0.13319622 24.943556
0.69971788 3.1737761 0.23556021 26.072193
0.63247848 3.2031374 0.14735447 25
0.77149361 3.8369601 0.1028683 24.217333
0.65927148 5.1814075 0.19063936 24.660864
0.6449632 5.2026968 0.11751167 24
0.52914363 8.6102896 0.14275146 23.81675
0.6052711 -3.0807164 0.61332375 29.41865
0.58357549 0.86643434 0.49727285 29.922279
0.68992841 1.2944119 0.43791533 29.146002
0.68673015 1.7955074 0.43777069 29.14575
0.66114718 3.1656747 0.54339975 30.035999
0.6848731 3.2141931 0.55199426 29.813873
0.74711281 3.7274404 0.53953087 28.945375
0.65579367 5.1799345 0.56872964 27.742626
0.62768859 5.2053452 0.64945436 28.135
0.53914613 9.0169086 0.46424133 25.25
0.64251214 -3.1197405 1.0002712 30.066666
0.67388934 5.1720552 0.91056669 30.471376
0.65388536 9.0163937 0.92947298 27.5
0.59761965 9.0116415 1.3899062 29.666666
0.65016335 8.9892654 1.6744308 31
0.99721026 5.0051274 -2.8806627 1.3333334
0.96274078 5.0660367 -2.5887709 3.5
1.0095503 -3.2189865 -1.774477 1.625
0.89328676 -3.1539986 -1.6895736 2.2
0.96365529 2.7479637 -1.4381183 2.875
1.0244861 2.9188974 -1.441756 4
1.0564497 -2.9644873 -0.83430648 11.277778
0.97670132 -2.6193254 -0.85579121 9.5599995
0.9642486 -2.2319405 -0.8670783 9.2666674
0.94160873 -1.8794025 -0.84050083 6.2222228
1.0099713 -1.3948283 -0.8602522 10.434285
1.0272455 -1.0324516 -0.84378952 10.351515
0.99141103 -0.51276064 -0.85815805 9.7361107
1.0537237 -0.17344913 -0.85913891 8.916666
1.0293704 0.23328002 -0.86024028 7.4253974
0.94218433 0.60259968 -0.85640347 8.8630953
1.047205 1.0481093 -0.85626799 4.833333
1.0598785 1.4746995 -0.87390065 8.083334
1.0188112 1.8161019 -0.8822909 8.8238087
1.0002687 2.1848412 -0.89188313 8.0515156
0.98022521 2.6404541 -0.89065093 10.516666
1.0406216 3.0523653 -0.86413115 11.870834
1.0241288 3.3564188 -0.88235015 12.25
0.9793402 3.7994752 -0.90952855 13
0.99908066 4.3887358 -0.8267014 15
0.85431516 8.219408 -0.96635431 18
0.92924792 8.9408054 -0.83860385 19
0.96465093 -2.9246781 -0.57125354 14.797738
1.0600071 -2.759233 -0.52982235 15.413333
1.0429347 -2.0848019 -0.61381102 10.875
0.94276738 -1.9430408 -0.53479701 11.864583
1.1901534 -1.4610789 -0.45634997 12.833333
0.98410797 -0.87010062 -0.41119489 13
0.97461373 -0.75260776 -0.5991081 16.5
1.1427264 1.0860431 -0.46228239 10.75
1.1791949 1.8170632 -0.4080891 15
1.0637237 3.1271589 -0.54854542 15.722222
1.0672126 4.4671926 -0.57648706 17.658333
0.96929151 5.1105943 -0.50511432 19
0.94006443 -3.4961646 -0.16888574 21.0525
1.0255333 -2.9912317 -0.25405109 19.626308
1.0362864 -2.6525252 -0.17698109 19.821602
1.1657056 -2.0192559 -0.32766876 17
1.0575482 -1.8854338 -0.20146337 18.728506
1.1662494 -1.5280361 -0.14986266 19.90048
0.94388622 -0.92174697 -0.12848179 17.633917
1.0204912 -0.75969118 -0.091517612 19.367958
1.1169047 1.0818778 -0.18420765 16.801195
0.87990397 1.9303976 -0.16834237 19.86167
0.82338512 2.19052 -0.063364863 22.130249
1.1060475 3.1256478 -0.1955507 20.298309
0.80269682 3.8753407 -0.1801009 21.389999
1.0248287 4.390646 -0.16100055 21.476257
1.0297384 4.4302588 -0.14421651 21.776335
1.0104849 5.0340447 -0.22857682 21.307835
1.1690542 -6.6242819 0.079581976 23.0165
1.0108169 -3.0867512 0.15078399 24.530947
1.1061165 -2.6505225 0.061362375 23.730976
1.1109763 -1.7379963 0.15089288 25.750729
1.1397573 -1.5094224 0.057264432 23.554001
1.0055782 -0.9440034 0.092877135 26.027029
1.0387323 -0.75602406 0.072198994 25.519585
1.0823139 1.1328235 0.15445013 26.340078
1.0186661 1.2278414 0.17808647 26.785782
0.92857546 1.8663576 0.14055876 25.606647
0.90145391 2.0475376 0.23415321 26.770046
0.82731277 2.469388 0.27497357 26.875
1.0726041 3.12499 0.23049527 25.95414
1.0922196 4.3572655 0.11493256 24.140652
1.014263 4.5459166 0.20855851 24.969259
0.92083132 5.0784497 0.14805692 24.317188
0.98507404 -3.1563551 0.62955028 29.216736
0.95096606 -1.0806887 0.59871012 29.156
1.0732837 1.1733158 0.46630085 29.143999
0.89087427 1.9981279 0.41212589 31.122999
0.96016544 2.0988979 0.47823185 30.380188
0.87746704 2.4534779 0.50345999 29.8284
1.0956081 3.1301568 0.51804852 29.810564
0.80392325 3.6971087 0.71439296 31.122499
0.92693484 4.3665833 0.68018496 29.307333
1.0566272 4.5293384 0.60735863 28.755171
0.93525994 5.0594268 0.59395564 28.175583
0.98441702 8.975523 0.52632368 25.5
1.0178998 -3.1262093 0.93593413 30.689562
0.99098355 4.3515272 0.86045927 31.043444
1.0584042 4.5699925 0.8778457 31.140291
0.97276658 5.0758924 0.86503208 30.256456
0.98751724 8.9853125 0.95026028 27.5
0.98396873 8.9819136 1.3771837 29.5
0.98159122 8.9603224 1.698364 31
1.3965894 4.9642673 -2.8099489 1
1.4506105 4.9749236 -2.5892298 2.4066665
1.5897449 4.9684978 -2.3234723 4
1.3558488 -3.2434683 -1.6925604 2
1.5187956 -5.7523284 -0.81956393 17
1.3694969 -2.9762762 -0.84152371 11.099999
1.3535726 -2.5477791 -0.8587476 9.291666
1.416554 -2.2843239 -0.86217862 8.1499996
1.3396804 -1.7968814 -0.8569802 6.2333336
1.3183815 -1.3724862 -0.85216922 9.3000002
1.3865561 -0.93149483 -0.86119068 8.6944447
1.4180603 -0.55550539 -0.85533273 6.7041669
1.3449417 -0.17220742 -0.84485614 5.875
1.4851817 0.084420085 -0.86465716 11.166666
1.4381584 0.62391168 -0.83406037 3.8499999
1.42925 1.0972241 -0.85472792 5.7619042
1.3960311 1.3806719 -0.86298567 5.0603175
1.4476707 1.8130629 -0.85886306 8.2666674
1.439907 2.2233009 -0.8715567 8.572916
1.4074266 2.6235936 -0.87249315 10.064816
1.4400268 3.0235837 -0.85302305 11.569446
1.4973729 3.4219043 -0.866395 12.75
1.3801003 3.7209001 -0.88626295 13.266665
1.327493 4.3614583 -0.80706537 15
1.4722092 -6.8190804 -0.60860425 18.75
1.4244698 -6.6701989 -0.56549829 19
1.4542664 -6.1518836 -0.71446991 18
1.465584 -3.2186828 -0.52402431 16.8375
1.3524168 -3.1219339 -0.54466385 15.667832
1.2062844 -2.745872 -0.54091126 15.0625
1.3133404 -2.1779864 -0.58571029 12.742857
1.5339217 -1.6871642 -0.5248118 9
1.243265 -1.4351505 -0.5601142 10.357692
1.484177 -0.75863367 -0.63199413 16
1.3922716 -0.120207 -0.58884114 4.2357144
1.4115789 0.74688125 -0.77450812 3.5833333
1.4215975 0.9535619 -0.6735183 7.1224489
1.5439798 2.6338875 -0.50002599 15.3
1.4828694 3.0815649 -0.56641382 15.349999
1.3174314 3.3817589 -0.62461317 15.166667
1.5983574 3.7642694 -0.73515064 15
1.5054369 4.3799453 -0.58590162 17.541666
1.4208442 4.4505124 -0.65221542 17
1.4724586 4.9978523 -0.60208482 17.5
1.4498082 -6.8192921 -0.04641939 22.25
1.442874 -6.6026535 -0.13632776 21.508751
1.5051197 -6.0035667 -0.22818559 21
1.4514998 -3.2193265 -0.1148151 21.595518
1.3443518 -3.0404129 -0.16553043 20.861677
1.2942038 -2.661325 -0.13250403 20.61265
1.328956 -2.068671 -0.16663268 19.271929
1.4727201 -1.7461094 -0.13569097 19.099813
1.2382581 -1.5293164 -0.17869265 18.211794
1.4018493 -0.90996802 -0.03158832 20.629599
1.494417 -0.73457319 -0.21919048 20.052168
1.4583445 -0.1413178 -0.22601396 14
1.4189665 0.053403672 -0.16709393 16.049999
1.4160405 1.1510779 -0.1409214 18.697239
1.4045497 1.2164539 -0.063218243 21.631584
1.4309845 1.7022747 -0.14345352 19.793579
1.5472343 2.1763406 -0.10796279 20.887976
1.4751678 2.6484861 -0.14022067 20.551167
1.5592569 3.0968308 -0.22260316 19.6245
1.3114185 4.3725834 -0.093360975 22.137501
1.424877 4.6479406 -0.20954515 21.111065
1.3670201 4.9915042 -0.17026334 21.752987
1.4197633 -6.7608266 0.23682983 23.713919
1.4682469 -3.234288 0.1920574 24.721716
1.3167201 -3.1307738 0.15200761 24.340366
1.2570968 -2.6857407 0.067578509 23.332251
1.3264797 -2.0105708 0.13123448 25
1.3727098 -1.804409 0.15864737 25.519342
1.2390159 -1.5012888 0.029586013 22.680832
1.4719216 -0.85122913 0.05884923 23.011
1.490923 -0.78841394 0.17805441 29.0285
1.4840702 -0.11184545 0.13382614 25.977859
1.3693802 0.10932234 0.24901131 29.417389
1.2686841 1.2188413 0.10627308 24.765312
1.2940224 1.7236037 0.22716193 26.959295
1.4804308 2.1785853 0.20619461 26.326162
1.3878043 2.6133058 0.19039874 25.712311
1.5263612 3.0944631 0.26434511 26.485899
1.4411644 4.301507 0.12057296 24.28767
1.3917345 4.5493245 0.26232824 25.361868
1.4723988 5.0056901 0.013217925 23.129999
1.5415437 -6.8053699 0.56029963 25.75
1.2636783 -6.7526455 0.56846976 25.809525
1.2995764 -6.1915359 0.72233725 27.0165
1.5146192 -3.2142773 0.53794813 28.87619
1.4688926 -3.1695237 0.65664095 30.007143
1.4829292 -0.74335629 0.47124732 28.159
1.4487622 1.1852254 0.47628945 30.770937
1.4842852 1.6981492 0.4719575 31.13275
1.4198751 2.1883016 0.4738287 30.642252
1.3083086 2.5589409 0.5011031 30.301554
1.542971 3.1007421 0.49351904 29.735643
1.4570963 4.3502545 0.71138996 29.930956
1.385074 4.5882173 0.59227067 28.416389
1.5233483 5.0023699 0.49336651 27.640499
1.5276536 -6.8040376 1.0391512 28.5
1.3028504 -6.7698054 1.0219923 28.4
1.2692951 -6.2742023 0.97697103 28.5165
1.4682409 -3.2084327 0.98029733 30
1.4770805 -3.1610851 0.97291094 30.67
1.3667887 4.3451338 0.86069191 31.0509
1.5032089 4.6156573 0.878025 31.135187
1.3785261 4.9572487 0.84563172 30.127251
1.516634 -6.8105774 1.4831551 31
1.335976 -6.7781358 1.4241283 30.666666
1.7160881 4.9508524 -2.6255684 1.9
1.7752323 -3.2896729 -1.7148285 1.90625
1.8867656 -3.2762475 -1.3957824 5.1964283
1.9158242 -6.6229563 -0.81125867 17
1.8218839 -5.763905 -0.81754059 16.666666
1.9020964 -4.8627353 -0.81764627 15.5
1.7602059 -3.2640877 -0.83357686 12.5
1.778373 -3.0687017 -0.83980876 11.813334
1.7725698 -2.6423192 -0.85856646 11.133333
1.8465632 -2.1640453 -0.85542846 10.833333
1.7274512 -1.92589 -0.85429561 5.6666665
1.8711076 -1.3352485 -0.89534444 7
1.7997 -1.0235109 -0.86539739 9.1851854
1.7923983 -0.60719568 -0.85916215 6.2361112
1.8325164 -0.13713901 -0.84680456 6.479167
1.8201091 0.29590577 -0.86175704 6.25
1.8270414 0.62553293 -0.84732908 6.6316667
1.8109287 1.0548654 -0.84112281 5.185185
1.8460793 1.3701786 -0.87169623 6.0714288
1.8385196 1.79976 -0.84628141 6.9124999
1.8430715 2.1403666 -0.86010164 7.4099998
1.8395883 2.5642741 -0.87415302 9.3666668
1.8066057 2.9948514 -0.86727673 11.195237
1.7918403 3.4010909 -0.8743788 12.642859
1.6583567 3.6888723 -0.86302477 13.166666
1.9701394 -8.4973717 -0.40685591 21.0515
1.8394023 -6.8742146 -0.5756551 18.75
1.9050689 -6.5342789 -0.78935838 17
1.9339294 -5.4975476 -0.78967983 16
1.7573316 -4.8139858 -0.42764211 19
1.8107557 -4.4771147 -0.4505915 19
1.9073484 -4.0828156 -0.53521508 17.111113
1.9254277 -3.7849221 -0.55619735 16.375
1.7470013 -3.2404659 -0.56760263 15.37738
1.7209448 -3.1573815 -0.57374126 15.708333
1.907572 -2.0920484 -0.53390872 12.075
1.70785 -1.6862955 -0.49886072 12.541667
1.916931 -1.4085269 -0.51133442 11.885714
1.9174563 -1.1149863 -0.59908599 10.683333
1.7401494 0.7396006 -0.74754822 8.1999998
1.8416634 1.0389427 -0.63297522 8.1618023
1.8849651 1.5210608 -0.46252292 9.5
1.9378077 1.6693915 -0.6026305 10.45641
1.7226301 2.1520894 -0.5851 12.011457
1.6289521 2.463541 -0.69975066 13
1.8676327 3.0494974 -0.57438248 14.722222
1.8155738 3.5507641 -0.68350637 15
1.8521765 4.3266606 -0.56185633 17.366667
1.9564564 4.6057496 -0.58515257 18
1.6448201 4.9386797 -0.65073991 17.5
1.8282846 -6.8727632 -0.12803876 21.404858
1.7463092 -6.7445207 -0.33899575 20
1.6970407 -4.9809933 -0.17988904 21.008251
1.8712212 -4.4806223 -0.24171646 20.815111
1.9000554 -4.1135731 -0.16190502 20.678572
1.91334 -3.7806263 -0.19615209 19.833334
1.8108207 -3.3189466 -0.16670252 20.168036
1.681646 -3.1638455 -0.21714951 20.317999
1.9954492 -1.0086175 -0.10420876 21
1.882354 1.0751462 -0.16931289 17.096235
1.6650736 1.5494477 -0.26923516 15
1.8913938 1.6769255 -0.17784424 18.41519
1.6413666 2.1654491 -0.22186466 18.732143
1.9578633 3.017271 -0.16783594 20.606167
1.8619572 4.3008924 -0.12448854 21.655056
1.7976443 4.5915427 -0.13046183 21.990583
1.8215432 4.9659543 -0.19033071 21.572809
1.7944554 -6.8475218 0.27942804 23.983334
1.6714295 -6.7735009 0.29795802 24
1.8949541 -4.127511 0.26171166 24.625
1.911516 -3.7057831 0.23025203 24.42
1.7862974 -3.3082995 0.19500065 24.499586
1.674948 -3.1533599 0.17758361 24.695326
1.8472234 -2.7824357 0.018588264 23.060499
1.8602554 -2.1194758 0.11814256 24.052376
1.9743099 -1.8545266 0.2692945 27.576399
1.8974762 -1.2969639 0.17273568 26.618855
1.9692414 -1.0386606 0.15426628 26.963795
1.8988036 1.0819924 0.19263963 27.300617
1.9401637 1.6724677 0.23067811 27.455235
1.9249955 3.0399311 0.27270335 26.71106
1.8552711 4.2906971 0.18151286 24.828125
1.7385932 4.580575 0.22669487 25.100645
1.7418234 4.9657083 0.01611872 23.128555
1.814273 -6.8408589 0.67437798 26.333334
1.6862634 -6.7884998 0.46009356 25
1.8853182 -4.0975013 0.57442158 27.5
1.9126109 -3.7095671 0.66951311 28.833334
1.8105222 -3.2933588 0.61637288 29.229416
1.762899 -3.0795054 0.58037406 30.0145
1.9111969 1.1049697 0.44553283 31
1.9313442 1.6539409 0.43999705 30.833334
1.9691956 3.0295334 0.52275294 30.114
1.9985518 3.5923257 0.57213694 29.5
1.841791 4.3023429 0.66082257 29.665142
1.8208892 4.5744214 0.58607703 28.461834
1.7971773 -6.8312278 1.0379704 28.5
1.8933554 -4.0674024 0.961016 31
1.9173065 -3.7444503 0.86599541 30.677
1.837079 -3.3960514 0.90078002 30.375
1.6651163 -3.1549628 0.81955647 30.006001
1.7773656 4.3279247 0.82883871 31.031563
1.8789352 4.5439415 0.86950058 31.132099
1.7595211 4.8265796 0.84401667 30.125
1.8715429 -6.816915 1.3452059 30.383751
2.267031 4.9432998 -2.5964952 2.25
2.1485925 -3.2921076 -1.691368 2.1598639
2.0742779 -3.3192515 -1.4596454 4.5
2.0438054 -4.8603501 -0.80374104 16
2.1695979 -4.1595888 -0.80633038 14.666667
2.1904893 -3.6933212 -0.82496589 13.75
2.1232455 -3.3944683 -0.86841857 13.5
2.1512728 -2.9645593 -0.86802173 13
2.1286862 -2.5925143 -0.85652763 10.833333
2.1961782 -1.7465063 -0.84976047 10.7
2.1887069 -1.4477363 -0.86303324 8.5333328
2.1925766 -0.99708933 -0.84813386 8.0238094
2.2464848 -0.63561112 -0.83839476 8.2374344
2.1993802 -0.22972362 -0.85984635 6.3839283
2.2844832 0.17321721 -0.87627864 6.3333335
2.205976 0.57003349 -0.89785689 5.375
2.1934083 0.93685573 -0.85512608 5.4583335
2.1481619 1.4337182 -0.86905986 6.4800005
2.1492701 1.8171297 -0.87319809 6.4444447
2.19312 2.175401 -0.87773967 7.5
2.1092052 2.5619276 -0.87608516 9.208333
2.1385384 2.975414 -0.86315107 11.5
2.217845 3.3402042 -0.88412845 12.75
2.1348979 3.7086484 -0.89164752 13.5
2.1279898 -7.7450852 -0.5229004 20
2.0530672 -6.8748064 -0.46907297 19.25
2.345324 -6.4498796 -0.76763338 17
2.2800546 -5.4048204 -0.78589493 16
2.2665794 -4.8472195 -0.79532707 15.5
2.1760335 -4.7000093 -0.79490972 15
2.2650628 -4.2558508 -0.79998618 14
2.22422 -3.4117103 -0.64510882 14.125
2.3488145 -3.1261716 -0.53615957 15
2.0113091 -2.0984075 -0.40803 13.5
2.1198134 -1.8150536 -0.41093066 13.75
2.1747875 -1.4724947 -0.425374 12.15
2.1460457 -1.022473 -0.54083383 11.074286
2.2462845 -0.65402979 -0.59330094 12.319964
2.1693568 1.112802 -0.47832739 9.2619038
2.2053721 1.2800055 -0.46366718 10.125
2.2937698 2.2807958 -0.70513046 11.5
2.3380203 2.5504117 -0.68642569 12.875
2.1656079 3.0014222 -0.60062677 14.414815
2.1049531 3.8538857 -0.53636372 17.111111
2.2355635 4.2759299 -0.52373564 16.655495
2.2503715 4.5144897 -0.58996451 16.625
2.0788991 4.8880367 -0.62033319 17.666668
2.0184722 -6.9326482 -0.16877179 21.180555
2.1368504 -3.2354262 -0.21199593 19.25
2.2737956 -2.9728403 -0.015590922 22.30925
2.2374442 -2.1871181 -0.35795769 14.666667
2.2280755 -1.9576982 -0.39813143 13
2.094429 -0.96927088 -0.19246127 17.141792
2.2588809 -0.64088476 -0.16891558 17.510803
2.0739582 1.3561411 -0.18174693 17.166668
2.0087364 1.6888674 -0.14077985 19.046333
2.1396959 3.0222242 -0.21038181 19.254583
2.068059 3.7476463 -0.16982101 20.998259
2.242461 4.3016715 -0.17978464 20.571154
2.2068534 4.517787 -0.12950546 21.917501
2.1052382 4.9146433 -0.27536756 20.71661
2.0512948 -6.9610662 0.30252007 24.075001
2.2358782 -3.2540226 0.25243348 25.178625
2.3185301 -2.7692964 0.25248316 26.065001
2.1264136 -1.6752038 0.34327042 28.471041
2.2788093 -1.3993013 0.27948454 26.886398
2.1194241 -0.93703824 0.1967005 27.377016
2.2371423 -0.63698626 0.1964204 26.462303
2.1693287 3.0106413 0.28486398 27.067368
2.0551052 3.7111452 0.12825799 24.307945
2.1716256 4.2901287 0.19973136 25.130003
2.211884 4.5054035 0.14032644 24.360334
2.2893498 4.8847737 0.25808331 25.67622
2.0349302 -6.9446201 0.68629354 26.416668
2.2132292 -2.9993589 0.59608644 29.91275
2.2520211 -1.7811624 0.43815792 29.80514
2.2016757 -1.592059 0.41030899 29.560276
2.1022379 3.0116506 0.53230453 30.031876
2.0457079 3.5924368 0.51479483 28.879002
2.0337577 3.6031389 0.54330432 29.127001
2.1067338 4.2558484 0.63973486 29.865332
2.2331624 4.7403898 0.61071789 29.261276
2.2482061 4.8587289 0.55734926 28.089468
2.3383243 7.9614882 0.64738411 27.099001
2.0649707 -6.8975263 1.066563 28.722221
2.1003108 4.283885 0.82721561 31.086166
2.1880939 4.6733389 0.85998893 30.796999
2.3264816 4.8406944 0.89394593 30.797583
2.3648999 7.5058365 0.80030757 28.599001
2.2703209 8.2014198 0.83311766 28.099001
2.0457973 8.6656218 1.1589507 29.848751
2.3634336 8.8506937 1.0818527 29.098
2.0603583 -6.9386234 1.4494152 31
2.3537591 7.8520808 1.2010354 31.098499
2.6837735 4.8863049 -2.6718619 1.8
2.5407312 -3.3556952 -1.6588825 2.25
2.5388589 2.9574323 -1.7163689 1
2.5399356 2.9636598 -1.5328153 3
2.7304182 -4.8507023 -0.85966873 16
2.7720971 -4.4400282 -0.85993135 16
2.454437 -4.2805681 -0.87310624 15
2.5896714 -3.8079426 -0.86784971 15
2.582372 -3.412694 -0.8365376 13.375
2.5273352 -2.9858632 -0.83026892 12.333333
2.50337 -2.5997248 -0.8418479 10.833333
2.6780937 -2.1953521 -0.82551122 10.166667
2.6332779 -1.8821671 -0.87621683 8.958333
2.4981182 -1.3477629 -0.86707997 7.7750001
2.5985734 -0.9764356 -0.8193 9.166667
2.6107659 -0.59071982 -0.86151063 8.9107141
2.6314805 -0.15217946 -0.86164474 7.1609521
2.6339469 0.20953792 -0.8804388 7.2333336
2.4884527 0.57561022 -0.85119063 8.0625
2.5477431 0.98193091 -0.84794879 6.2666664
2.6704822 1.334964 -0.86787724 5.5160713
2.6376429 1.8466974 -0.87335491 7.1999998
2.6216476 2.1557338 -0.88221693 8.0500002
2.5769296 2.5033495 -0.88043869 8.916667
2.4464717 3.4089227 -0.85135829 11.5
2.5904782 3.6815104 -0.86159295 12
2.5913379 4.2925787 -0.80172819 15
2.6896262 4.477571 -0.83182782 12
2.4026008 -6.8705058 -0.46244842 19.200001
2.5966868 -6.627358 -0.59285778 18.4375
2.5565338 -6.2339697 -0.78222281 17
2.625134 -5.3928232 -0.73061365 16.333334
2.6390595 -4.8044391 -0.78304225 15
2.5669374 -4.2746062 -0.79504794 14
2.6328623 -3.7952323 -0.66002613 16.25
2.722553 -3.4486885 -0.54556572 15.763889
2.5863702 -3.0537117 -0.79787326 10.75
2.7465379 -2.666297 -0.79320133 9.166667
2.5675509 -2.2267094 -0.70248371 8.4375
2.4933729 -1.9836558 -0.49477243 11
2.4335229 -1.2399783 -0.41073209 7.5
2.500072 -0.94826567 -0.55726719 10.595238
2.4935241 -0.76569051 -0.6526829 10.338776
2.645396 -0.17823389 -0.40775144 3
2.61268 0.67961061 -0.6799525 5.9421391
2.6026468 0.8930636 -0.63170516 9.6052189
2.4233303 1.3888112 -0.58931017 9
2.7062321 1.7679474 -0.47311053 11.7
2.6524773 2.3475463 -0.58042842 12.274479
2.5751765 2.4884531 -0.59501702 13.510417
2.5765891 2.931704 -0.49031413 16.095238
2.5592959 3.9320974 -0.76556242 10.322917
2.5654039 4.3217201 -0.60265875 13.927273
2.6612155 4.6191783 -0.6006881 13.472221
2.6525211 4.9094472 -0.52750355 15.666667
2.4875495 -8.1143456 -0.39584923 21.053499
2.5995779 -6.9252424 -0.097601846 21.625
2.5371943 -6.7288833 -0.36282915 20
