# .PCD v0.7 - Point Cloud Data file format
VERSION 0.7
FIELDS x y z intensity
SIZE 4 4 4 4
TYPE F F F F
COUNT 1 1 1 1
WIDTH 1182
HEIGHT 1
VIEWPOINT 0 0 0 1 0 0 0
POINTS 1182
DATA ascii
14.211603 -1.1727453 -0.63366151 16.490759
14.376437 -0.65664941 -0.57582152 18.5
14.171175 -0.36206648 -0.67472649 18.666668
14.292467 0.63726926 -0.56110924 19.1
14.233653 1.1529747 -0.57596284 14.318254
14.208479 1.2087868 -0.6093958 12.578969
14.184337 -1.2192672 -0.22264452 21.216614
14.276919 -1.1968663 -0.22216216 20.833334
14.146053 -0.51439613 -0.29175538 21.250875
14.074819 -0.29455552 -0.11717614 22.5
14.334562 0.69377351 -0.14613105 22
14.209355 1.1500396 -0.1887401 20.719954
14.125947 1.2058986 -0.17248902 21.0875
14.183486 -1.2323722 0.19115062 25.206635
14.102086 -0.52303529 0.19523104 24.80065
14.033192 -0.24532817 0.18060063 24.5
14.341864 0.68189311 0.18194605 24.333334
14.251286 1.1466341 0.24059826 25.901783
14.22334 -1.246762 0.56750697 27.368095
14.025501 -0.3378689 0.58882183 27.266668
14.26333 0.61800921 0.60524154 27.335699
14.202879 1.1425831 0.60759306 27.549477
14.201171 -1.2610162 0.96244979 28.676373
14.200263 1.13524 1.0081514 28.523031
14.240561 -1.279071 1.3958148 30.213535
14.184821 1.122318 1.4091983 29.626698
14.317715 -1.2901068 1.7220395 30.75
14.177733 1.10682 1.7759354 30.596249
14.229882 -1.0529 2.0560184 31.000374
14.211933 -0.58329248 2.0665741 31.06975
14.259351 -0.13235816 2.0730119 31
14.222645 0.22412197 2.0882936 31
14.285583 0.64102119 2.1155515 31.053051
14.085553 0.95784152 2.1064327 30.496277
14.547925 -1.2069008 -0.85129243 18.75
14.577209 -1.0910732 -0.89805168 13.051076
14.557858 -0.61182302 -0.93138409 11.714418
14.575957 -0.21045329 -0.92012143 14.265038
14.632078 0.19856559 -0.90441442 13.570001
14.597185 0.57340562 -0.89438808 12.596666
14.589096 1.0517647 -0.86431307 10.12356
14.652512 1.2134918 -0.85495895 7.6199999
14.620178 -1.2107617 -0.61587405 18.838186
14.589608 -1.1672701 -0.6473611 15.600897
14.42676 -0.78954512 -0.69025517 17.5
14.664079 0.2214103 -0.58805269 17.674603
14.565529 1.1923498 -0.54753333 15.74742
14.61264 1.2104875 -0.61868596 14.900999
14.609966 -1.2145458 -0.21207759 21.373106
14.593108 -1.1104922 -0.24176653 21.200001
14.497297 -0.74248213 -0.16905023 22.190475
14.705308 0.23262459 -0.24212977 21
14.591029 1.1849163 -0.1691415 21.099041
14.562861 1.2033708 -0.16493799 19.824295
14.58708 -1.2277743 0.19215553 25.236839
14.619699 -0.96989131 0.23841512 25.73888
14.607672 -0.77228945 0.096199334 24.724222
14.610965 -0.046782568 0.25737703 26.08975
14.71596 0.22140265 0.078331418 24.166666
14.696751 0.4115251 0.27348951 26
14.611723 1.1690028 0.26159021 25.601524
14.626112 -1.2412046 0.58052707 26.948296
14.601692 -0.96376628 0.54081821 27.791668
14.433517 -0.74662381 0.49627331 28.336832
14.657237 0.233778 0.5052278 28.408152
14.632707 1.1569659 0.60743999 27.841013
14.624004 -1.2564834 0.97148466 28.706951
14.546213 -1.1902817 0.91387546 26
14.62903 1.1428679 0.99619484 28.764589
14.62424 -1.274229 1.4014714 29.570175
14.633449 1.1303509 1.4361478 29.803057
14.653559 -1.2702819 1.7779231 30.0625
14.561779 1.1219064 1.7757324 30.442499
14.629612 -1.2501847 2.0490108 31.021749
14.67557 -1.0047383 2.0563402 31.050785
14.605915 -0.59301925 2.0761199 31.104002
14.638892 -0.14324884 2.0808468 31
14.65468 0.31128064 2.0967889 30.833334
14.701307 0.76623392 2.1097562 31
14.660786 0.96724969 2.0870457 30.793814
14.902694 -1.208272 -0.88420641 13
14.956948 -1.0860038 -0.91177928 12.771753
15.003066 -0.63877344 -0.93306869 9.7295885
14.968238 -0.21913981 -0.91908228 9.6394567
15.019533 0.17531195 -0.9020918 10.888888
14.950653 0.61150199 -0.89121372 9.8992672
15.032535 1.0408568 -0.87006325 9.3452301
14.97487 1.22058 -0.82812297 12.52381
14.98166 -1.2085577 -0.54754746 18.377104
14.979382 -1.1823334 -0.63727599 15.682516
15.031523 -0.24086986 -0.52412546 19.457142
15.093292 0.78883547 -0.53627765 19
14.98837 1.0415081 -0.55303097 15.336256
14.994434 1.2129544 -0.60114926 15.100288
14.991668 -1.2141943 -0.18794389 21.813456
15.014644 -1.1904696 -0.23996332 20.819324
15.08535 -0.41522658 -0.2074472 21.75
15.03264 -0.20093317 -0.19019864 21.812939
15.159511 0.6985454 -0.25676033 21
15.040899 1.1873002 -0.20384862 20.911221
15.001434 1.2068338 -0.17776373 20.684496
14.97823 -1.2212673 0.17252563 24.954885
14.9714 -1.1895611 0.24535267 27.863836
15.060884 -0.41860577 0.27358508 25.333832
15.059498 -0.2326397 0.17696702 24.429214
14.818142 0.21345942 0.16261306 25.244183
15.18692 0.49747205 0.2863234 25.0005
15.028191 1.177803 0.21925622 25.056469
15.071827 1.2023246 0.17649582 23.091499
14.985363 -1.2394629 0.5998801 27.808298
14.955016 -1.1758884 0.62222183 25
14.988734 -0.24577934 0.47706234 26.517374
15.004081 1.1658324 0.62102872 27.645199
15.001328 -1.2553183 0.97072041 28.974073
14.941307 -1.1852617 0.940566 26
15.022575 1.1469463 1.01844 28.531183
14.956271 -1.2832937 1.3892139 29.781656
15.045448 1.1320195 1.4351192 29.068211
14.866181 -1.2837139 1.7739948 30.6348
15.057184 1.1144311 1.8384532 30.272808
14.968287 -1.0314595 2.0387943 30.8361
14.963284 -0.59880686 2.0530305 30.943201
14.968535 -0.18284594 2.0683432 30.888889
15.000704 0.58835351 2.0986316 30.888889
15.029136 1.0507815 2.1023443 31
15.568638 -1.2057625 -0.87149101 19
15.418078 -1.1183318 -0.89551234 13.124117
15.43408 -0.64340627 -0.92778605 13.017316
15.366699 -0.26813823 -0.90846354 14.172619
15.388144 0.19700119 -0.90009904 14.99
15.38862 0.55569136 -0.88479167 13.611111
15.412149 1.0141096 -0.87263882 13.389724
15.354828 1.2143782 -0.83233225 13.797619
15.370048 -1.2099034 -0.54842907 19.491934
15.389543 -1.1805669 -0.62452406 16.105202
15.394635 -0.55954182 -0.62509704 17.714285
15.50071 0.12882362 -0.66685861 16.916666
15.426107 0.9142856 -0.60813755 18.200001
15.407993 1.2199012 -0.58923626 14.841688
15.360198 -1.2142277 -0.19415043 21.701298
15.411966 -1.1887128 -0.23922074 20.690012
15.418723 -0.59953111 -0.25201491 21.071428
15.336464 -0.38183352 -0.25250924 21.001499
15.593817 0.11848321 -0.16669792 21.678501
15.346004 1.074654 -0.16417101 20.976194
15.418221 1.2096157 -0.19147681 19.760918
15.400348 -1.2168748 0.18610787 24.756527
15.409176 -1.0965664 0.16062096 26.271683
15.462325 -0.50745577 0.17717126 24.950293
15.34872 0.67084533 0.11781982 23.839626
15.400749 1.1550111 0.23318417 24.987478
15.408531 1.2047067 0.14828737 24.884157
15.412896 -1.2302611 0.56685263 27.040848
15.369343 -0.83827072 0.45890337 27.5
15.417479 -0.60483122 0.54022354 28.217169
15.589898 0.19703117 0.46772301 27.677876
15.413909 1.1440084 0.5916701 27.869209
15.429128 -1.2469592 0.94746351 28.883741
15.376368 1.1578285 0.99130964 29.326023
15.452783 -1.2673457 1.2755749 29.800598
15.366056 1.1496862 1.423551 29.189575
15.461486 -1.3267847 1.8213217 31.001598
15.401282 1.1357429 1.7867608 30.088451
15.307441 1.0699649 2.0938272 31.015333
15.79093 -1.0963125 -0.91505319 13.637037
15.807825 -0.6800046 -0.93934929 14.783335
15.751006 -0.27018344 -0.91947907 13.292308
15.735584 0.17876321 -0.89025795 14.237778
15.799246 0.55385011 -0.88889074 13.944444
15.834553 1.033142 -0.85530061 14.680554
15.838969 1.2214729 -0.83084667 10.697223
15.78035 -1.2089899 -0.54656506 20.75
15.804677 -1.1742277 -0.62590742 16.247168
15.707644 0.32689953 -0.56521398 17.527777
15.822691 1.2290884 -0.58218229 15.16508
15.743743 -1.2086526 -0.20304543 21.254517
15.805464 -1.184587 -0.23109144 20.655851
15.699684 0.2228395 -0.22207646 20.892857
15.801127 1.1974401 -0.089285418 20.583334
15.841857 1.2146704 -0.18602784 20.069347
15.800994 -1.2113788 0.17522302 25.033028
15.788611 -1.1906832 0.14930399 25.181631
15.717495 0.21314885 0.17382072 24.809626
15.658752 0.48860598 0.26526806 25.676001
15.803126 1.1909673 0.26809427 24.966393
15.82882 1.2059982 0.18637542 25.169682
15.806918 -1.2253619 0.55632728 27.348413
15.782451 -1.1800941 0.53947592 27.75
15.673735 0.25995612 0.51336443 27.980953
15.819942 1.174836 0.66077209 27.531801
15.805279 -1.2397743 0.98360878 28.897223
15.767123 -1.1762005 0.99633884 26
15.83594 1.1621847 0.9980787 28.164557
15.96795 1.2092242 0.92382288 31.093
15.79999 -1.2672279 1.3589199 30.104847
15.804643 1.1524714 1.3713104 29.250732
15.727197 -1.3115124 1.7719309 30.380047
15.840778 1.1241971 1.8376082 30.560808
15.733128 -1.2438271 2.0331283 30.739141
15.743386 -1.1158494 2.0531628 30.517426
15.652195 -0.57206053 2.0673819 30.863375
15.683702 -0.10778403 2.0836437 30.75
15.695967 0.30395544 2.0978463 30.666666
15.686016 0.68355775 2.1123555 30.761093
15.824808 1.0500338 2.0922334 30.65568
16.201826 -1.1109161 -0.89625347 14.941535
16.197935 -0.60684192 -0.92992866 13.574075
16.246065 -0.21613163 -0.91066164 13.371795
16.206514 0.18857038 -0.89914393 14.440001
16.243721 0.5355795 -0.88536561 12.6875
16.262249 0.96707129 -0.86944288 12.376398
16.271429 1.2244941 -0.83004016 13.75
16.170507 -1.2037736 -0.58154815 20.666666
16.203608 -1.1713419 -0.62729925 16.395575
16.202707 1.2332845 -0.57169974 15.896452
16.14649 -1.2074615 -0.17964874 21.618687
16.233776 -1.1824672 -0.24745937 20.432503
16.089443 1.1993607 -0.15423115 16.233334
16.168974 1.2179141 -0.15362249 21.364264
16.167271 -1.2114257 0.1865039 24.753267
16.260214 -1.1907855 0.17608152 24.931904
16.180395 1.1905974 0.25271168 25.178913
16.194853 1.207575 0.20815995 24.537094
16.196289 -1.2212198 0.58258629 27.094551
16.245008 -1.1900263 0.57803607 28.375
16.148495 1.1826783 0.62052923 27.188797
16.210852 1.2066833 0.49479434 27.380951
16.220612 -1.234663 0.95539904 29.030535
16.212088 -1.189788 0.93920779 29.333334
16.214392 1.1682037 1.004557 28.71607
16.222645 -1.2685542 1.3007069 29.076401
16.216774 1.1528071 1.3936672 29.609056
16.1663 -1.3129957 1.7368917 29.691
16.24021 1.1372107 1.781726 30.222221
16.001223 -1.2036722 2.072118 30
16.150585 -1.1036916 2.0427635 30.585999
16.103765 -0.66206098 2.0606325 29.815685
16.145128 -0.2760275 2.0678599 30.058752
16.145611 0.17076983 2.079416 30.0595
16.126976 0.56461972 2.0885992 30.060165
16.199011 0.99264407 2.0875435 30.424082
16.592018 -1.0668377 -0.91809195 15.516129
16.557304 -0.64065796 -0.92923176 12.951755
16.654974 -0.23911005 -0.91520894 15.05
16.627945 0.19222441 -0.90383798 16.416666
16.633478 0.59522694 -0.88916945 16.058823
16.62117 1.0291038 -0.86681831 13.961667
16.581259 1.2398425 -0.82833374 14.388888
16.655493 -1.2020216 -0.51175547 21
16.618973 -1.162346 -0.61323828 15.896244
16.530161 1.1866069 -0.79660082 15.5
16.612711 1.2392546 -0.56145406 17.95377
16.645914 -1.2113072 -0.18581796 22.25
16.604767 -1.1795926 -0.23030221 20.990877
16.55335 1.1962228 -0.13242517 16
16.598024 1.2244707 -0.16571954 20.552603
16.553608 -1.2110307 0.19013613 25.285757
16.634476 -1.1863286 0.16964549 25.785135
16.596788 1.1919159 0.25536597 26.023058
16.604124 1.2136786 0.23823959 24.585173
16.617807 -1.2158035 0.58194077 26.970226
16.586779 -1.1871841 0.59067309 28.119446
16.57855 1.1899534 0.61257899 26.713415
16.672703 1.2051051 0.5853284 27.114197
16.618744 -1.2315679 1.0174167 28.265751
16.577801 -1.1856625 0.95092249 29
16.602749 1.1774261 1.000356 28.21875
16.526983 1.2031283 1.1019204 27.333334
16.612608 -1.2614927 1.3350223 29.428188
16.410778 -1.1938926 1.5141402 29.088499
16.594078 1.1628268 1.4009503 29.456791
16.53912 -1.2767051 1.7570399 30.220562
16.654411 1.145945 1.8394513 30.833336
16.544125 -1.2199138 2.0531507 31.088499
16.768354 -0.98196054 2.0391948 29.696417
16.740978 -0.45284197 2.0195026 29
16.710499 -0.03161592 2.0282581 29
16.692297 0.34508118 2.0387788 29
16.619656 1.0057172 2.0989757 30.393915
17.029909 -1.053949 -0.91694564 14.432857
16.996933 -0.5907684 -0.94384032 15.474666
17.001701 -0.17200769 -0.92089444 15.961308
16.991489 0.15208998 -0.91269308 15.908001
16.999325 0.58411199 -0.90150607 15.114141
16.965477 0.98840129 -0.87451172 15.166667
17.035303 1.2419958 -0.85322261 13.539474
17.018957 -1.1575911 -0.62213218 16.018051
17.050694 -0.13653752 -0.56258827 18.962963
16.959551 0.78618097 -0.68742061 17.75
17.088232 0.80710346 -0.50504202 19
16.994097 1.2419776 -0.56422448 16.323481
17.030802 -1.2023151 -0.13281715 22.5
17.008648 -1.1717616 -0.24807912 21.028551
17.150923 -0.4776693 -0.051139947 23.004
17.095055 -0.18494047 -0.18879227 21.833334
17.145363 0.65354252 -0.19657026 21.4356
17.072596 1.0063217 -0.12568739 22
17.007248 1.2292078 -0.15045464 21.272968
16.976562 -1.2094868 0.20033228 25.994139
16.999949 -1.1849158 0.16601144 24.747215
17.021299 -0.17688139 0.20449162 24.833582
17.098007 0.55039883 0.32997161 25.559668
17.016314 1.1008517 0.30752721 27.869989
17.018904 1.213479 0.23559141 24.719406
17.053925 -1.2105794 0.5891844 27.195002
16.987906 -1.1902556 0.58001077 29.136591
17.134933 -0.45886683 0.46613708 27.00375
17.005117 -0.29303885 0.55864841 27.556013
17.114603 0.68931746 0.59789264 27.5
16.986868 1.1913815 0.64026034 26.949219
17.019497 1.2086279 0.58381426 26.961109
17.008593 -1.2240168 0.9960891 28.549173
17.031254 -1.1827176 1.0419589 29.199999
16.943893 1.1813564 1.0247784 28.850834
17.149115 1.2027764 0.98063236 27.809525
17.049753 -1.2736593 1.4354435 29.407936
16.972342 1.1690997 1.3923537 29.537634
17.010273 1.2039758 1.4883318 28.666666
16.993624 -1.2903092 1.6878518 30.526798
17.045195 1.1583275 1.8078227 30.533333
17.051674 -1.3122811 2.0480108 30.58625
17.122345 -1.110815 2.0398822 31
17.041603 -0.52046824 2.0739961 31.030167
17.157665 -0.15945996 2.0630476 31
17.031157 0.23854829 2.0997901 31.055099
16.917326 0.72776288 2.1081364 31.092751
16.980295 1.0969311 2.1144557 30.218548
17.444576 -1.0933172 -0.89921862 13.698717
17.406755 -0.59835154 -0.94031936 11.277778
17.422041 -0.20988822 -0.92324954 10.819696
17.395849 0.18015105 -0.90749723 10.366667
17.457008 0.58984607 -0.89272267 11.688889
17.414881 0.97539657 -0.86906141 11.573129
17.343676 1.2456259 -0.83559811 13.28144
17.412645 -1.1549826 -0.63021982 15.355475
17.214462 0.60463911 -0.61740279 18.111113
17.400059 1.245423 -0.5596351 17.451006
17.306719 -1.2039722 -0.2593655 22
17.380079 -1.1707699 -0.24061348 20.967627
17.257307 1.1969769 -0.073960401 22.5
17.386042 1.2326047 -0.17220896 20.382036
17.279089 -1.2098858 0.20123808 24.875
17.38505 -1.1845119 0.18105792 25.168116
17.264313 0.635306 0.19934396 24.589249
17.371901 1.054206 0.25473344 25.368767
17.401909 1.2185663 0.22209634 24.390768
17.353333 -1.2091175 0.58989602 27.236019
17.423153 -1.1888784 0.57337546 27.256697
17.37129 1.1943274 0.60755056 26.666666
17.409683 1.2089908 0.60297662 26.582771
17.367901 -1.2193465 0.99293268 28.494244
17.44441 -1.1902958 0.9137764 30.5
17.366804 1.1842971 1.01349 28.48797
17.447914 1.2049135 0.98295712 28.15625
17.406773 -1.2518513 1.3808062 30.293417
17.392986 1.1737379 1.3986702 29.660921
17.481655 1.208804 1.5076777 28.5
17.329773 -1.2632877 1.7117933 29.087
17.38644 1.1575699 1.7304053 30.540188
17.531988 1.2021149 1.913088 30
17.483116 -1.2595531 2.0226595 30.043499
17.31945 -1.0329815 2.0932863 30.5
17.382902 -0.51958579 2.098428 30.333334
17.272129 -0.074784882 2.1369469 30.5
17.260805 0.30987501 2.151217 30.5
17.327595 0.61869556 2.1402102 30.5
17.335646 1.057261 2.1382406 30.272751
17.835024 -1.09392 -0.94249517 12.116585
17.787632 -0.61322606 -0.94621158 12.252975
17.807476 -0.23269713 -0.93200415 11.242491
17.829613 0.19712473 -0.91587859 12.7
17.810986 0.62846386 -0.90180612 12.783334
17.823498 1.0243777 -0.87618852 12.032479
17.851004 1.2515552 -0.8377896 10.683809
17.797747 -1.1497626 -0.6301204 16.515329
17.789171 1.2565303 -0.60038811 15.925653
17.835289 -1.1660627 -0.2306097 21.335791
17.966959 1.1878716 -0.33329424 22.091999
17.80077 1.2382442 -0.16171759 21.005156
17.782673 -1.204196 0.24971429 23.833334
17.835844 -1.1777726 0.18022439 25.270491
17.78862 1.2213036 0.25175667 24.893431
17.809425 -1.2077377 0.62414676 26.272728
17.843233 -1.1888245 0.56612819 27.604166
17.833652 1.1972599 0.68144917 28.5
17.804876 1.2085904 0.61215651 27.013977
17.803854 -1.2116584 0.96477014 28.431013
17.848022 -1.1927613 0.94033986 28.625429
17.788254 1.1887616 1.003348 28.728434
17.870846 1.2079831 0.94540578 28.76923
17.848495 -1.2355179 1.3198001 29.561907
17.956142 -1.1923198 1.2419561 31
17.779034 1.1753951 1.4070407 29.786955
17.775795 -1.2753773 1.7013291 30.272999
17.789236 1.1668551 1.7700604 30.181818
17.878479 -1.0648669 2.0530283 29
17.882919 -0.66963577 2.0681863 29
17.785139 -0.23586194 2.0761642 29.333334
17.775406 0.16140492 2.0900235 29.333334
17.842405 0.53651702 2.1166949 29
17.823662 1.039427 2.1195269 29.799999
18.20195 -1.0795056 -0.90238273 13.63013
18.148804 -0.59981519 -0.93882722 11.501167
18.190571 -0.16692062 -0.92364269 10.810714
18.201338 0.19534598 -0.89962757 14.009804
18.249796 0.63037026 -0.8946963 13.285088
18.208036 1.005169 -0.87927389 12.176455
18.212135 1.2584057 -0.82484937 11.655556
18.220812 -1.146577 -0.62725675 17.289675
18.303125 -0.58528972 -0.66887408 16.625
18.120062 0.16561595 -0.56336153 17.40625
18.190142 1.260763 -0.59302115 17.501053
18.226082 -1.1620637 -0.21274231 21.534153
18.394072 -0.53714943 -0.21077324 21.112612
18.153236 0.13557687 -0.1656545 21.257143
18.225626 1.244993 -0.18141234 21.324404
18.292601 -1.2012424 0.29283282 24
18.206516 -1.167485 0.17425853 25.152433
18.348965 -0.54411614 0.10131201 24.302151
18.110205 -0.037359875 0.20836802 25.000334
18.13946 0.24155404 0.15716274 24.417356
18.231956 1.1884245 0.29055595 26.197332
18.223131 1.2289597 0.24610507 24.586483
18.246849 -1.2049272 0.69231856 28
18.209753 -1.1869682 0.56995797 27.099556
18.395468 -0.70118284 0.53002423 28.752876
18.044804 -0.047469843 0.4196119 27
18.109892 0.21007226 0.6120429 28.777779
18.170908 1.1953939 0.64547515 26.6
18.208172 1.2155459 0.61899447 26.786287
18.189367 -1.2082955 1.0037557 28.531816
18.170656 -1.1928124 0.89660466 28.458008
18.188818 1.1909242 1.0445508 28.686781
18.247192 1.2091683 0.99192631 28.55238
18.224709 -1.2307209 1.2999432 30.079626
18.3522 -1.1600226 1.4882668 28.089001
18.213385 1.1823399 1.4140379 30.110144
18.207716 1.2022648 1.2170781 26
18.223377 -1.2559426 1.7335335 29.04425
18.280807 -1.1614684 1.7772715 29.089001
18.125011 1.170778 1.7363253 30.159199
18.141899 -1.2352014 2.0243833 30.04425
18.178713 -1.0375837 2.041327 30.181501
18.197458 -0.59975642 2.037509 29.666666
18.209795 -0.10704805 2.0496886 29.666666
18.204214 0.26275951 2.058594 29.666666
18.136896 0.68694007 2.0720351 30.044374
18.192732 1.1049144 2.0641925 29.068937
18.601049 -1.0643106 -0.92422265 11.887953
18.568029 -0.58956087 -0.93837208 12.77381
18.551971 -0.20451663 -0.92812383 12.552631
18.617802 0.16638829 -0.92183626 13.379072
18.622599 0.61746043 -0.90455747 11.734849
18.600851 1.017606 -0.88351643 13.507504
18.594492 1.2466618 -0.85250199 13.060605
18.620275 -1.1409293 -0.65762341 16.919188
18.496805 -0.72456282 -0.65770179 16.566666
18.627136 1.2680486 -0.6031909 17.079706
18.638388 -1.1476717 -0.22996856 21.460375
18.436518 -0.70753276 -0.27486151 20.555555
18.624424 1.2520729 -0.14887634 21.325569
18.620464 -1.156695 0.20491768 25.716623
18.514137 -0.63195163 0.23907742 25.857143
18.617456 1.2352494 0.25802708 25.236029
18.600363 -1.2079942 0.58638954 25
18.605173 -1.1773576 0.58591312 26.938511
18.44776 -0.68385571 0.56437105 29.167875
18.713486 1.1932138 0.66930693 25
18.604734 1.222176 0.62067336 27.374615
18.578167 -1.2125132 0.99841636 28.844347
18.603369 -1.1885855 0.95782131 28.688328
18.597919 1.1928579 0.94176733 29.333334
18.605101 1.2104685 1.0385222 28.650618
18.743441 -1.2441441 1.335023 27.5
18.774149 -1.1878183 1.2316699 30
18.617279 1.1891887 1.3792975 30.040001
18.572138 1.2118607 1.3991952 29.666666
18.733234 -1.2684181 1.7441489 29
18.57995 1.1820983 1.7950686 29.714285
18.768084 1.2247002 1.8198256 29
18.681557 -1.2446091 2.0315523 30
18.526808 -0.98379064 2.0775397 30
18.593046 -0.53417253 2.0796716 30
18.607513 -0.13549578 2.0915208 30
18.603891 0.22521669 2.101269 30
18.567307 0.63973677 2.0947516 30.061584
18.585184 1.0788224 2.0813658 29.546125
19.015799 -1.067716 -0.93479198 14.113566
18.971178 -0.59975773 -0.94993037 11.981746
18.93816 -0.20649014 -0.93511802 13.745371
19.001564 0.18890041 -0.91161662 14.297101
18.962694 0.58381444 -0.907695 13.882353
18.966185 0.99678576 -0.89204985 14.79359
19.001842 1.2644669 -0.84913164 11.481172
19.01782 -1.1346762 -0.62645429 16.871378
18.999891 0.26506671 -0.60306597 17.061224
19.151474 0.45797721 -0.70636362 16.549999
19.058939 1.2729876 -0.58306783 16.695927
19.016504 -1.1486042 -0.25777233 21.14131
19.004759 0.21745043 -0.23247483 20.811357
18.977196 0.40430143 -0.15348825 21.677
18.921822 1.1605756 -0.35814652 22
19.02504 1.2575893 -0.18750769 20.931356
18.999393 -1.1627842 0.1678361 25.203182
19.007664 0.28448379 0.2121052 25.253927
18.966633 0.42870745 0.14714858 24.67675
18.93355 1.1474483 0.051380012 23
19.025414 1.2409536 0.24409223 24.831532
19.052828 -1.2030997 0.60750949 25
18.97983 -1.1776799 0.58214039 27.668903
18.934511 0.14856634 0.52945888 28.459366
19.010839 1.1633627 0.59484267 24.546249
19.015162 1.228774 0.60495877 27.09882
18.919518 -1.2087282 1.0203183 29.15
19.030428 -1.188171 0.94844067 28.646376
18.983456 1.1645699 0.96087009 27.8365
19.042162 1.2161298 0.98907602 28.854303
18.961382 -1.24894 1.4172628 29.946169
19.126009 -1.1807294 1.2938302 30
19.055273 1.1868291 1.3532215 30.34375
19.062868 1.2052317 1.347374 30.130207
19.053057 -1.2522907 1.7272775 30.314499
18.933313 1.1701376 1.7745354 28.861113
18.870094 -1.259166 2.0970869 30
18.869413 -1.0348502 2.0803576 29.333334
18.891853 -0.65655655 2.0827825 29
18.90971 -0.2971423 2.0850368 28.666666
18.905266 0.22614002 2.1151593 29
18.8873 0.55664611 2.1261446 29
18.869051 0.90500855 2.1390059 29
19.495335 -1.2202046 -0.92156613 15.545455
19.401943 -1.073133 -0.92131531 13.290418
19.453236 -0.58728802 -0.92790133 12.275
19.368109 -0.1867175 -0.93371391 8.9816856
19.430258 0.24053013 -0.90286231 9.8849211
19.388811 0.62174445 -0.90148163 8.8920631
19.448853 1.0285299 -0.87884802 9.992425
19.37995 1.2763371 -0.84445661 13.950112
19.525572 -1.2317896 -0.63265151 15.923334
19.434557 -1.1236292 -0.62485564 17.293617
19.453382 -0.62779284 -0.5929836 17.069445
19.415943 -0.25162131 -0.51526326 19
19.434126 0.30438739 -0.60609072 18
19.202288 0.52181816 -0.62474287 18
19.398478 1.2801611 -0.56592411 14.955963
19.503492 -1.2447299 -0.25596234 20.562605
19.423477 -1.1262821 -0.23105416 21.063475
19.532122 -0.63834918 -0.25682637 20.720572
19.533442 -0.23896824 -0.23747396 21.300001
19.364162 0.30394971 -0.22334521 21.25
19.290565 0.45314121 -0.3121382 20.5
19.403912 1.2637626 -0.16140175 20.900221
19.505743 -1.2699696 0.13546431 26.031336
19.431471 -1.1361463 0.17991325 25.200951
19.529497 -0.56698638 0.20536137 25.668018
19.549097 -0.32208273 0.16803505 24.833334
19.302612 0.2390348 0.28559726 25.544624
19.410553 0.47759816 0.1926585 24.725668
19.396498 1.2493554 0.22253473 24.907141
19.495361 -1.2683402 0.50765479 27.971693
19.421349 -1.1571767 0.55675012 27.67824
19.444754 -0.7033298 0.55394024 29.667862
19.53256 -0.30799288 0.46174937 27.350275
19.346661 0.29953629 0.64991909 28.6775
19.305174 0.43975151 0.51122469 27.277779
19.363363 1.23527 0.62901282 27.385614
19.453072 -1.2513165 0.96652079 29.609526
19.38978 -1.1786631 0.99091882 28.298388
19.377966 1.2191615 1.0095972 28.936871
19.367132 -1.2216769 1.3940048 27.752668
19.344278 -1.1871591 1.2105987 30
19.331242 1.1897038 1.3760375 30.299999
19.406927 1.209764 1.3536066 30.120016
19.384691 -1.2586604 1.7670765 27.752998
19.414555 -0.94198179 1.9834836 28
19.407291 -0.4007892 1.9979894 28
19.41893 1.1875966 1.8301501 30.375
19.442144 1.2032938 1.7729331 29.062332
19.340666 -1.2568558 2.0484653 29.087
19.351999 -0.9962036 2.0722039 29
19.396133 -0.54209781 2.0724998 29
19.394905 -0.12143859 2.0846753 29
19.381845 0.24587627 2.0557761 28.5
19.352568 0.71693665 2.0827057 28.666666
19.31991 1.1035058 2.0663898 29.18207
19.859602 -1.224974 -0.92143017 11.951389
19.774086 -0.9992789 -0.95743662 12.445249
19.751005 -0.57063347 -0.95366704 10.281372
19.753714 -0.1745787 -0.91673017 13.375
19.731689 0.23942466 -0.92368156 12.9375
19.810024 0.60379118 -0.90874296 13.411458
19.768988 0.96838844 -0.88940269 15.181818
19.778967 1.2594384 -0.84689802 14.012798
19.843775 -1.235961 -0.66838497 12.089025
19.625051 -1.1389679 -0.6877616 17.928572
19.653053 -0.35605735 -0.65203953 17.666666
19.792051 1.2888274 -0.59281451 15.166549
19.822639 -1.2570275 -0.25765258 20.328247
19.618845 -1.1581992 -0.16291544 22.5
19.610014 -0.37469241 -0.33204702 20.5
19.806118 1.2728436 -0.17440286 20.807634
19.786119 -1.2853591 0.18986304 27.460297
19.62674 -1.17055 0.38160899 24
19.624491 -0.64587003 0.21990643 26.166668
19.712093 -0.36530542 0.17879094 25.001499
19.814878 1.2564572 0.22340922 24.899179
19.829071 -1.2911061 0.52520186 29.900772
19.606071 -1.1766704 0.74692529 25
19.747725 1.2403313 0.60526997 26.836462
19.72534 -1.2780567 1.0689703 30.828503
19.818403 1.2255112 1.0096142 29.113821
19.762083 -1.2343385 1.3046151 27.091
19.834595 -1.1739932 1.2478286 30.682251
19.649479 1.195241 1.3407793 30.299999
19.891237 1.2166954 1.3377144 30.289883
19.633417 -1.2429867 1.8979464 28.085501
19.777779 1.1944612 1.8649406 30.833334
19.862902 1.2013077 1.7860845 28.543751
19.720995 -0.99974877 2.0321352 30.0895
19.719519 -0.52473909 2.0445671 30.045124
19.714256 -0.23175953 2.0530541 30
19.687592 0.2636027 2.066674 30
19.652637 0.65936053 2.0777664 30
19.791367 1.0960379 2.1006017 30.030708
20.223213 -1.2180303 -0.9237448 13.166667
20.200821 -1.0193313 -0.96344793 13.32738
20.23601 -0.60411972 -0.94662243 14.899471
20.190098 -0.16103928 -0.93610513 14.166667
20.158175 0.17256755 -0.92481166 16.151514
20.187798 0.58874911 -0.90653485 14.333332
20.202328 1.0130725 -0.89254892 14.519276
20.203686 1.272087 -0.85650724 13.593452
20.199411 -1.2347816 -0.66813105 11.654047
20.209044 1.2932882 -0.57131743 15.245525
20.253244 -1.2489952 -0.22753678 20.724463
20.212828 1.276064 -0.15395628 20.833406
20.23431 -1.2691392 0.16225787 26.488953
20.218916 1.2590523 0.23689681 25.392357
20.176872 -1.2777255 0.58560109 29.315081
20.195385 1.2463149 0.61934477 27.019958
20.242157 -1.2698617 0.96272135 29.889999
20.156794 -1.1954737 1.1659248 27.089001
20.228724 1.2299715 1.0047649 28.816668
20.216429 -1.2361032 1.3351587 30.234303
20.398823 -1.1955073 1.2967608 30.5
20.259365 1.198946 1.4309222 27
20.215021 1.2244613 1.373744 29.007576
20.331114 -1.2389271 1.7824613 29.838249
20.18088 1.1937099 1.8941877 29
20.192053 1.2137041 1.780785 29.166666
20.030392 -1.0511642 2.0804343 31.086876
20.101131 -0.58343172 2.1050611 31
20.103245 -0.36336258 2.11309 31
20.054058 0.13504775 2.1240482 31
20.198809 0.53898728 2.1219153 31.045
20.245211 1.1182331 2.107028 29.854549
20.585333 -1.232814 -0.89859182 11.78485
20.507933 -0.96844429 -0.96149528 14.508667
20.591726 -0.57966554 -0.95473737 12.668518
20.590958 -0.16136612 -0.94177508 13.15812
20.588367 0.24626739 -0.92243165 14.33125
20.623339 0.64132893 -0.9086023 12.784657
20.615583 1.0440222 -0.89157629 12.985
20.546402 1.2832131 -0.84016258 13.129167
20.551891 -1.2405765 -0.66742575 12.896539
20.528242 0.32986212 -0.49581528 19
20.70121 0.53182018 -0.64315677 17.511906
20.618683 1.2953645 -0.5670678 15.132599
20.544582 -1.2567567 -0.23818746 20.535387
20.614555 0.33392841 -0.21205395 21.437107
20.677376 0.52615774 -0.16071784 21.75
20.626513 1.2811346 -0.1700757 20.23535
20.539528 -1.2747765 0.18311535 26.855734
20.599602 0.28135318 0.18396989 24.892416
20.688675 0.57186872 0.1337792 24.378157
20.622957 1.2656628 0.21783251 25.315058
20.510893 -1.2816788 0.58345258 29.131945
20.585514 0.31083527 0.55371886 28
20.606916 0.47427058 0.55081022 27.975334
20.617352 1.2490196 0.59503174 26.830803
20.575634 -1.2837876 0.92919767 29.603037
20.641134 1.2364358 1.0008215 28.043678
20.430424 -1.2415491 1.4044663 29.0875
20.592028 -1.1711605 1.3136714 29.084167
20.627087 1.1990169 1.456629 27
20.64502 1.2257431 1.412133 28.166666
20.590872 -1.3035165 1.7333822 29.338501
20.56085 1.1894668 1.8687408 28
20.62579 1.2110496 1.8105011 29.4
20.697393 -1.2649922 2.0522184 28.754999
20.567606 -1.0034951 2.0520675 29.511189
20.59252 -0.60033321 2.0665045 29.018051
20.585825 -0.21896124 2.0830081 29
20.5438 0.16975194 2.0904992 29.333334
20.553785 0.61942708 2.0875044 28.618298
20.584063 1.0447562 2.0964231 28.441713
20.936193 -1.2396228 -0.89648205 11.758334
21.003342 -0.95250428 -0.9629907 12.642858
21.019955 -0.61054671 -0.96166271 11.745614
21.035639 -0.22020347 -0.93061757 10.513888
21.031311 0.23320787 -0.90169704 13.662222
21.01153 0.6174413 -0.89444959 12.084001
21.000612 1.0376496 -0.90130168 14.095239
21.060837 1.2876381 -0.86313391 9.9392862
20.963701 -1.2539004 -0.64880311 13.358562
21.089705 -0.49453709 -0.5150646 17.979168
21.002197 -0.30334333 -0.61871296 17.722221
21.055399 0.27952239 -0.62460881 17.860714
21.04269 0.53312188 -0.60807955 17.968889
20.983675 1.1858985 -0.41012201 22
20.996912 1.3014035 -0.54504359 14.065613
20.948427 -1.2762965 -0.19079706 21.31505
21.047943 -0.48299468 -0.24750471 20.995455
21.04953 -0.28000864 -0.21003307 21.5
21.103233 0.2917468 -0.22266449 21.329247
21.102821 0.52329832 -0.21180277 21.417688
20.984713 1.2910664 -0.19514711 19.385994
20.988462 -1.2887686 0.20812182 27.68292
21.041069 -0.5203495 0.19729741 25.430054
20.966093 -0.2075052 0.21948919 25.5
21.080557 0.23778409 0.24762908 25.305016
21.102678 0.51673919 0.2052663 24.941406
20.988087 1.1706561 0.047192443 23
21.006353 1.2708328 0.21625784 25.642132
20.940714 -1.3085368 0.60311973 28.067625
21.041864 -0.54027027 0.44492489 27.945444
20.973398 -0.38310471 0.51569456 28.312967
21.061975 0.32199103 0.53344214 27.590757
21.094866 0.47102496 0.53528839 27.507214
20.933987 1.1519771 0.50332475 24
20.966051 1.2561343 0.59046268 27.213991
20.992466 -1.3177875 0.96378273 29.323927
20.863239 1.1322885 0.96003687 25
20.975641 1.2461877 0.97872144 27.657894
21.045994 -1.2520171 1.3266201 29.584625
20.983316 1.1236855 1.4242374 26
20.958599 1.235692 1.4303516 28.642857
20.912277 -1.2571558 1.8048967 29.5865
21.022175 -1.1794314 1.6314924 30.081499
21.127073 1.1675255 1.8781122 27.666666
20.960829 1.2189516 1.8254257 29.314812
20.98764 -1.2162108 2.0064857 28.085501
20.938255 -0.95916033 2.0535851 28.5
20.957865 -0.70379847 2.0097172 28
20.928905 -0.2439208 2.089267 28.666666
20.918125 0.18557897 2.082231 28.5
21.003445 0.54573053 2.0942445 29.36425
20.939318 1.0321735 2.0806484 29.19721
21.158556 1.2185071 2.0890353 30
21.274387 -1.2300344 -0.91545379 14.8
21.4004 -1.0314 -0.91566902 13.464658
21.417059 -0.5509547 -0.92457378 12.687142
21.396208 -0.15079392 -0.94105715 9.4375
21.293818 0.21992415 -0.92456228 13.642209
21.357403 0.66055113 -0.90692258 13.304861
21.332212 1.0100694 -0.89788389 12.773183
21.380716 1.302335 -0.86228108 6.8357139
21.323685 -1.2400328 -0.64133912 16.10133
21.407473 -1.1169205 -0.61673546 14.991294
21.407665 -0.51964629 -0.6248011 17.847223
21.377659 1.3096374 -0.56888986 13.195082
21.331753 -1.2475511 -0.23667875 21.210648
21.393801 -1.116511 -0.24017559 20.203659
21.472876 -0.53057873 -0.19521363 21.76981
21.435596 -0.25585851 -0.24123143 21.37377
21.214699 0.34040415 -0.14684431 22
21.239183 0.49840915 -0.085227504 22.464285
21.412443 1.292222 -0.15875204 20.400957
21.332296 -1.255237 0.17248157 25.498791
21.393654 -1.1264635 0.16611889 26.874214
21.4779 -0.53391623 0.16873074 25.031517
21.358418 -0.18281987 0.18747476 24.984001
21.215919 0.32739767 0.20736313 25
21.22423 0.51613009 0.14742036 24.413462
21.390982 1.2797854 0.21747793 25.32032
21.358093 -1.2568442 0.5844155 26.146772
21.422842 -1.1438496 0.56927657 26.068182
21.419683 -0.50418347 0.54612166 28.258005
21.308323 -0.29161507 0.48122668 27.458334
21.384007 1.263368 0.60386252 26.652697
21.369303 -1.2579129 0.97555566 27.743797
21.436478 -1.1670064 0.98715454 27.995596
21.378849 1.2473485 1.0431244 27.642807
21.350121 -1.2205491 1.2202153 27
21.486542 -1.1572831 1.2458146 30.216602
21.370483 1.2362061 1.4347204 28.583334
21.209454 -1.1818781 1.8973384 31.081499
21.406998 1.2263225 1.7995707 29.220678
21.214748 -1.061397 2.0466838 31.088249
21.225155 -0.6753999 2.0577476 31.089251
21.223093 -0.19588777 2.0723512 31.0905
21.212481 0.28017187 2.0888691 31.091749
21.544031 1.0681499 2.1469479 30.418499
21.404976 1.2143606 2.0863667 29.666666
21.814497 -0.97915989 -0.89797413 14.13125
21.838778 -0.64653504 -0.92611724 12.310966
21.78937 -0.17316498 -0.94320697 9.9666662
21.779072 0.22022101 -0.92534322 13.764706
21.800253 0.69714326 -0.90730619 13.38492
21.842442 1.0236129 -0.8637014 12.497778
21.776958 1.284911 -0.84685194 11.356552
21.852032 -1.2050012 -0.51313186 22
21.825403 -1.0202384 -0.61843395 15.711871
21.960466 -0.77051008 -0.59922528 16.98889
21.938263 1.0751802 -0.5849576 14.417967
21.844316 1.3003927 -0.5966922 17.200283
21.853739 -1.0326343 -0.2403928 20.140676
21.957443 -0.78314656 -0.23780587 20.444565
21.946209 1.0517292 -0.18428676 19.52445
21.870728 1.2731568 -0.17711139 20.7806
21.925602 -0.93390179 0.17384683 25.591482
21.948637 -0.78743404 0.1190076 25.085649
21.925726 1.0491998 0.22714686 26.391264
21.87248 1.2608069 0.20786476 24.505796
21.942511 -0.92204076 0.58638734 28.310959
21.958702 -0.79348314 0.44641787 27.751083
21.946276 1.0421902 0.58341223 27.605968
21.876165 1.2559466 0.6350823 26.537683
21.918739 -0.99784142 0.95501351 29.405249
21.965395 1.0718312 1.0300716 27.84753
21.871227 1.2483712 1.0127805 28.666668
21.937054 -1.2300514 1.5006677 28.861582
21.964407 -1.0218658 1.3858845 29.009256
21.990713 -0.1430507 1.3384615 31
21.983608 0.069001786 1.5797081 29
21.965139 1.0888305 1.3881137 28.302565
21.819735 1.2437546 1.4525142 28.902485
21.897404 -1.3552315 1.8117242 30.447813
21.974072 -1.0359123 1.788269 30.007406
21.967833 -0.53256255 1.8552457 30
21.972923 -0.20202459 1.8646351 29.966667
21.966064 0.19576035 1.8867396 30
21.96381 0.63118541 1.9115709 30
21.939648 1.0976068 1.8264333 30.12619
21.820871 1.2476029 1.8077582 29.682333
21.760057 -1.2402213 2.0570462 30.333334
21.840694 -1.0970737 2.0478404 30
21.759813 -0.70991701 2.0733175 30
21.758314 -0.32193112 2.0864577 30
21.739492 0.073040493 2.0991263 30
21.783278 0.48784822 2.1096983 30
21.809231 0.99736261 2.1118243 29.799999
21.936081 1.20564 2.1254621 30
22.155729 -0.98577344 -0.91317838 13.548079
22.106833 -0.68835223 -0.90707856 13.764322
22.202431 -0.30063552 -0.94307715 11.910714
22.164297 0.13367991 -0.92252779 12.964286
22.184319 0.5823347 -0.90116793 12.5
22.137463 1.0741657 -0.86428285 11.981481
22.19792 1.269997 -0.83017462 12.219564
22.113684 -0.9977622 -0.60882521 16.304567
22.0721 -0.7701441 -0.63374311 14.524306
22.045731 1.0850415 -0.57382619 14.958281
22.128708 1.3057883 -0.59621698 14.460965
22.098017 -1.0169588 -0.24070857 20.925951
22.089941 -0.77977949 -0.25603724 19.16094
22.047277 1.0692031 -0.1953243 20.323935
22.116411 1.2924943 -0.19035523 20.296156
22.102392 -1.0145779 0.15825967 25.578213
22.086803 -0.78712249 0.13488472 26.837893
22.047197 1.0599991 0.18776397 25.125477
22.124466 1.2815 0.21276905 25.280848
22.086182 -1.0163506 0.55690777 27.897665
22.064907 -0.79283816 0.48351312 27.833599
22.038294 1.0478573 0.59959924 27.502354
22.095646 1.2694849 0.60220575 28.917734
22.072388 -0.98761672 0.91862947 28.093103
22.045071 -0.69969749 1.0509001 27.917723
22.092587 -0.15218855 1.154007 28
22.083136 0.24025527 1.1640763 28
22.111629 0.62148994 1.151746 26
22.052765 1.0383483 0.9343006 28.263563
22.049459 1.2660426 0.91244394 29.237844
22.048069 -1.0055073 1.3937843 27.692308
22.073242 -0.58810329 1.3791568 27
22.053215 -0.19973718 1.4429224 28.008701
22.044308 0.16458261 1.445991 28
22.049065 0.58598995 1.4121959 27.954546
22.036175 1.059991 1.4162297 27.387932
22.065485 1.2187583 1.2962282 26
22.040472 -1.3212407 1.8159245 27.468899
22.054399 -1.050704 1.798438 28.31579
22.066183 -0.63723534 1.7888032 28.222221
22.059803 -0.24456497 1.8073481 28.025
22.057566 0.15366746 1.8097593 27.96875
22.049009 0.56011581 1.8131109 28.083334
22.042864 0.99631876 1.8182077 28
22.061279 1.211105 1.7789278 27.5
22.026474 -1.4481027 2.0677607 28.0865
22.085421 -1.0461545 2.0840058 28
22.07127 -0.68162769 2.0507095 28.666666
22.065916 -0.26858762 2.0626359 28.666666
22.060787 0.10919479 2.0749712 28.666666
22.08247 0.54615772 2.0854018 28
22.051529 0.99795681 2.1196661 28
22.638071 -1.0310402 -0.94329721 10.097643
22.616652 -0.69749212 -0.95940596 10.406482
22.597721 -0.31654024 -0.94127125 12.309524
22.558016 0.17668609 -0.91981179 12.606837
22.594683 0.62595379 -0.89987963 11.703449
22.593149 0.98350453 -0.88332087 10.689246
22.624084 1.3000112 -0.8338871 12.706897
22.638062 -1.0841889 -0.64939499 12.600213
22.587002 1.3323522 -0.59258854 10.214675
22.634092 -1.0988292 -0.30209652 19.370224
22.636093 1.3190242 -0.17880125 18.561256
22.634233 -1.1152126 0.12336372 26.53277
22.617197 1.2999868 0.22372517 26.797485
22.613228 -1.1347554 0.5703122 29.900379
22.594843 1.285563 0.57402611 29.419189
22.51483 1.2736763 0.83502722 31
22.65057 -0.72715116 1.6969204 29.087749
22.604475 -0.2020753 1.6967251 30.088123
22.620491 0.11948679 1.7159444 29.755915
22.625137 0.60739642 1.7243257 30.423416
23.065323 -1.0393342 -0.91746724 10.707353
23.009775 -0.67699742 -0.95734882 11.806249
22.986422 -0.29699695 -0.94388247 12.286232
22.955481 0.14975543 -0.92392522 12.022727
22.961836 0.53822708 -0.90768665 10.585555
22.947636 0.94299012 -0.89213949 11.395454
23.042076 1.3042229 -0.84007514 11.021839
23.042801 -1.0780215 -0.62479836 12.366972
22.988546 1.3384633 -0.59291178 11.08149
23.045982 -1.0927377 -0.26494357 19.361368
22.988958 1.32555 -0.17468883 18.965384
23.157644 -1.2123437 0.23219445 27.75
23.080845 -1.1230646 0.15572329 26.642567
23.072487 1.3582864 0.22259232 26.270298
23.179169 -1.210498 0.41752106 28.5
23.086796 -1.1370664 0.4877547 29.890028
23.043112 1.3300067 0.55234528 29.829014
22.828289 -0.77274197 1.6917461 29.083
23.17543 1.0386291 1.685514 29.093
23.451866 -1.0062764 -0.94441396 10.95115
23.412178 -0.63497299 -0.95667124 10.719082
23.401699 -0.24475981 -0.94019461 10.368572
23.381327 0.17600334 -0.92277533 10.386667
23.34853 0.53233147 -0.90903175 11.14935
23.336632 0.9583621 -0.88927442 12.125
23.438559 1.308241 -0.84174544 10.226985
23.429907 -1.0708059 -0.63353306 12.39347
23.370281 1.3449111 -0.55650979 10.544695
23.420841 -1.1111898 -0.18636268 21.06501
23.329891 1.3302244 -0.17104952 19.415524
23.209568 -1.2146343 0.21928066 28.008307
23.400642 -1.1677083 0.15384062 27.094421
23.43191 1.4082233 0.16503258 25.455626
23.273504 -1.2081342 0.52805716 30.336832
23.451164 -1.1858697 0.45502427 29.766899
23.428341 1.3942014 0.5677489 30.19327
23.840765 -1.0295272 -0.92098945 10.193265
23.804739 -0.62362301 -0.95420003 10.471689
23.789055 -0.23734044 -0.93891788 10.237654
23.777168 0.17482172 -0.92245191 9.7230577
23.750462 0.5889672 -0.90720457 10.17803
23.730923 0.9478451 -0.89296478 8.41856
23.77474 1.3229971 -0.83372539 9.0364828
23.852526 -1.066278 -0.669052 12.715842
23.749491 1.3555899 -0.60133147 11.52886
23.873493 -1.0894336 -0.23433365 20.163929
23.739977 1.3395966 -0.18520635 19.074053
23.800428 -1.1591388 0.18729742 27.30039
23.832111 1.4131259 0.18177323 25.747847
23.828333 -1.1693164 0.50744528 29.865807
23.827404 1.3984075 0.52454466 30.276821
23.807947 1.3973662 0.92578018 30.5
23.783112 -0.8839168 1.6782664 29.088749
23.817585 -0.51621979 1.6672175 29.057917
23.858953 -0.15382151 1.685405 28
23.824392 0.30636501 1.695559 29.54475
23.849566 0.66889888 1.7176629 28
23.812851 0.96722728 1.7372773 28.728834
24.240356 -1.0266286 -0.91872519 8.7236786
24.221874 -0.61556625 -0.96113342 8.1767073
24.17277 -0.20388202 -0.94047296 7.2941175
24.213766 0.19929585 -0.92700762 7.2008033
24.160286 0.60043657 -0.90866452 6.7244897
24.133575 1.0132791 -0.89569032 8.108901
24.201605 1.3347291 -0.83695287 8.0352926
24.241352 -1.05612 -0.65671366 11.313432
24.158762 1.3625833 -0.62041712 10.416241
24.22971 -1.0905107 -0.22520272 20.333647
24.113911 1.3438203 -0.19600315 19.065193
24.167377 -1.2113433 0.19008805 27.952627
24.154459 -1.170598 0.17796281 27.44614
24.125872 1.3874346 0.19934283 26.321045
24.165039 -1.1729202 0.51110208 29.854166
24.125586 1.3715427 0.52135313 30.197195
24.191826 1.3555124 0.94456714 29.833334
24.393391 0.38760579 1.580048 26.086
24.370703 0.7065956 1.5894772 26.0865
24.240526 1.3373002 1.3874837 30
24.024033 -0.89315218 1.6805108 30
24.042122 -0.5913232 1.6873591 30
24.05167 -0.1685015 1.6966791 30
24.052824 0.23630893 1.7069064 30
24.041014 0.60626012 1.7163957 30
24.008484 1.0371275 1.7270751 30
24.613733 -1.0104687 -0.91098225 8.685607
24.624187 -0.60802019 -0.95507985 6.4080448
24.570797 -0.20100655 -0.94177228 7.9447188
24.609297 0.23665789 -0.92779416 7.5169873
24.557449 0.61006808 -0.91142738 7.9110951
24.593679 0.97946948 -0.89526165 7.0793653
24.548326 1.3292267 -0.84234899 7.8307104
24.650461 -1.0525497 -0.64931428 10.603811
24.565102 1.3640039 -0.62623775 9.9418192
24.619398 -1.1225131 -0.1312681 22.052208
24.520109 1.3473709 -0.15971792 19.660587
24.775551 -1.2009103 0.12583886 27.6
24.649323 -1.1795292 0.16423839 27.607779
24.589272 1.3858643 0.21375008 26.732821
24.575411 -1.2074652 0.59648323 29.457855
24.755257 -1.1985246 0.78672171 31
24.598185 1.3780358 0.53227967 29.793371
24.617741 -1.2468863 1.016111 28.585501
24.650999 -1.1666497 1.1612871 29.084249
24.613041 1.3589884 0.93565363 29.188
24.529425 -0.98605537 1.5712074 28.584
24.46627 -0.42788121 1.5584656 26.084999
24.423681 -0.046114136 1.5677137 26.085501
24.603189 1.3332297 1.5336918 30.531334
24.635672 -0.97362429 1.641219 29.333334
24.646328 -0.66350758 1.6497386 29.333334
24.574371 -0.28049564 1.6649895 28.5
24.566702 0.14140217 1.6786608 28.5
24.687782 0.54061341 1.6658264 28.4
24.63913 0.97512013 1.6834166 28.5
24.741657 1.2072884 1.6999507 31
24.971668 -1.0005403 -0.91419178 8.6882439
24.97131 -0.61322391 -0.96109772 6.3575964
25.00194 -0.18591277 -0.94497311 7.3301587
25.058521 0.23212035 -0.92889249 6.5925927
25.040125 0.65902144 -0.90901703 6.645062
25.031031 1.0029323 -0.89945936 7.2714291
24.974358 1.3398147 -0.84108406 7.6343002
25.032362 -1.0448296 -0.63393354 12.040402
24.96797 1.3733515 -0.586097 9.7570887
25.018909 -1.0889858 -0.18399249 21.32888
24.915394 1.3566191 -0.1823668 19.48724
25.13723 -1.2090462 0.1888382 24
25.051281 -1.1482658 0.13483876 27.505812
25.036221 1.409603 0.22138175 27.062441
25.04829 -1.2184229 0.57117397 28
25.10058 -1.1647656 0.53719783 28.779285
25.034239 1.3799162 0.53089738 28.961073
25.081083 -1.233918 0.98869091 29.527695
25.135069 -1.1875212 0.96099496 29.229834
24.97925 1.3573416 1.0026965 29.170389
25.027914 -1.2487262 1.4522461 30.223167
25.022299 -1.1902828 1.5752333 31.086
24.878265 -0.79246843 1.5968307 27
25.005114 -0.99050564 1.6290296 29.022251
24.925003 -0.58795768 1.6660801 27.417902
24.868813 -0.16521481 1.666696 28.018
24.880365 0.18259519 1.6918292 28.272625
24.892561 0.57673848 1.7134072 27.363668
25.071398 0.96198082 1.7298017 29.799999
25.039574 1.251404 1.7178285 30.297001
25.394342 -1.0069292 -0.89865702 6.8638072
25.327896 -0.62196511 -0.94838196 8.0444822
25.36799 -0.21212855 -0.93447292 10.007759
25.400288 0.19024165 -0.9158113 15.397708
25.372145 0.55874127 -0.90372568 14.4182
25.436193 0.99656171 -0.88973528 8.4063854
25.414198 1.3648409 -0.83090895 7.3415747
25.470871 -1.0387906 -0.61643749 10.301227
25.381119 1.3780255 -0.60210073 9.5753517
25.436533 -1.069563 -0.20920888 20.198
25.339705 1.3617516 -0.20102862 18.894188
25.46961 -1.2058014 0.10118574 29.39995
25.454874 -1.1337892 0.13289523 28.013174
25.407825 1.4267173 0.16197835 25.870525
25.43379 -1.1548767 0.61025375 29.682083
25.463699 1.4294604 0.59137321 29.413616
25.414825 -1.1609597 0.84100795 30.5
25.521547 1.4195789 0.92085069 30.866667
25.207645 -1.036863 1.6228883 31
25.215786 -0.66978383 1.6303834 31
25.231009 -0.27046618 1.6482764 31
25.232046 0.12666552 1.6668643 31
25.214998 0.54249024 1.6865457 31
25.764334 -1.0010636 -0.9088707 7.2734375
25.841827 -0.65806162 -0.97433937 11.379284
25.840763 -0.30973983 -0.94651639 13.828572
25.769012 0.076367587 -0.92791665 13.1875
25.762075 0.48541322 -0.91060281 13.1875
25.813135 0.91070503 -0.89400434 11.15974
25.759531 1.344866 -0.83451551 6.2075758
25.867451 -1.0337226 -0.57446599 10.915116
25.816774 1.38462 -0.57089239 9.7515326
25.849169 -1.0581379 -0.21255672 20.077913
25.755713 1.3652534 -0.19855762 18.595249
25.809059 -1.1334631 0.1146384 26.99921
25.769001 1.4424242 0.17349046 26.434368
25.847698 -1.1443185 0.59819508 29.348839
25.798815 1.4398906 0.55178052 28.987579
25.758329 -1.1561989 0.9909665 29.2672
25.838957 1.4283816 0.93368363 30.472221
25.786459 -1.1699545 1.4477242 30.417833
25.751326 1.3799341 1.3203868 28.592833
25.899536 -0.91836232 1.6509163 29.542875
25.782368 -0.58056641 1.6790422 27.587124
25.738615 -0.17372727 1.6905184 27.587875
25.648335 0.047467563 1.7134917 26.088499
25.718859 0.51600111 1.7237391 27.589001
25.889671 0.97400165 1.7023859 29.544876
25.757038 1.2812748 1.6929438 29.591
26.164207 -1.0076976 -0.90923506 9.7582178
26.293976 -0.64642483 -0.96277618 12.059524
26.157093 -0.2594876 -0.95649695 13.717
26.173168 0.067567721 -0.95644182 13.417101
26.173882 0.46699226 -0.93105394 13.347667
26.219564 0.91007203 -0.90489399 12.792063
26.204525 1.351561 -0.84343034 10.339743
26.227007 -1.0254319 -0.58984476 9.6058168
26.201292 1.3884242 -0.53562629 9.9646311
26.206427 -1.054902 -0.22818871 19.469015
26.195978 1.3755298 -0.2088024 16.708633
26.171114 -1.1376156 0.11279092 27.186377
26.115047 1.4215903 0.1910439 26.172962
26.155188 -1.1371809 0.50922585 28.61977
26.139685 1.4044652 0.58213156 27.993252
26.131298 -1.1582034 0.94815886 28.972694
26.139158 1.3879716 0.99073327 28.493803
26.282019 -1.5551233 1.5769706 30.085501
26.122646 -1.0597291 1.5394993 28.613222
26.09111 -0.45439169 1.5767533 26.087
26.012068 -0.011082502 1.5802852 26.0875
26.082485 0.37707025 1.5936476 26.087999
26.170792 1.3643312 1.4726188 27.928572
26.388081 -1.0260415 1.6055269 30
26.18475 -0.50996256 1.6226628 28.043499
26.18429 -0.11521269 1.6339569 28.043751
26.184404 0.28755212 1.6463858 28.043999
26.137188 0.71039563 1.639668 27.392334
26.375776 1.0279006 1.7142857 30
26.29287 1.2570717 1.7094594 30.046501
26.620077 -0.96122909 -0.91225576 14.481481
26.664902 -0.58297354 -0.95944947 14.653794
26.558342 -0.27599609 -0.94648981 12.664682
26.56312 0.14340404 -0.92351586 13.4375
26.596029 0.55671442 -0.91563141 13.65
26.57218 0.93998802 -0.8890056 11.294444
26.62821 1.3417398 -0.85396123 11.234313
26.625753 -1.0158381 -0.59963655 10.347283
26.60157 1.3975291 -0.54126149 10.728848
26.621302 -1.0552789 -0.20866981 19.954834
26.54372 1.3795459 -0.20104824 18.557547
26.651487 -1.1352701 0.1152292 26.659473
26.577993 1.4079648 0.15317959 26.492483
26.629185 -1.1754124 0.5266543 29.05394
26.568754 1.4021236 0.588898 28.073704
26.566637 -1.1584398 1.0278699 29.949186
26.60882 1.3861623 0.97349298 30.078802
26.42231 -0.86467254 1.5980583 26.0865
26.567818 1.3526562 1.2945867 30.195501
26.55147 -1.0589104 1.6190739 29.028334
26.446726 -0.6619001 1.6270978 29.666666
26.46134 -0.25249201 1.6432102 29.666666
26.488192 0.13597496 1.6570815 29.5
26.461464 0.55045694 1.6773919 29.666666
26.545437 1.0507205 1.6796786 29
26.444733 1.3021504 1.6737262 29.091499
27.006672 -0.96958148 -0.92749417 14.679991
26.987944 -0.5895319 -0.96604395 13.237343
26.928368 -0.27170458 -0.94337183 13.336893
26.957386 0.1288147 -0.9355588 15.879636
26.992086 0.54691792 -0.91458672 15.607
27.005564 0.97052884 -0.89075518 14.881083
27.023785 1.3442701 -0.85359949 10.64787
27.034367 -1.0101241 -0.61967146 11.45892
27.036459 1.3977398 -0.56842613 11.693977
27.023848 -1.0577106 -0.19599895 21.011248
27.035112 1.3169103 -0.14974922 18.885639
27.020317 -1.2115229 0.2924549 26.25
27.065018 -1.112482 0.1161396 26.295431
27.003788 1.4199432 0.16528642 26.325403
27.078102 -1.2199945 0.59800243 27.700001
27.110554 -1.1324239 0.58457184 28.461857
27.06838 1.4020891 0.59467864 27.850636
