# .PCD v0.7 - Point Cloud Data file format
VERSION 0.7
FIELDS x y z intensity
SIZE 4 4 4 4
TYPE F F F F
COUNT 1 1 1 1
WIDTH 1182
HEIGHT 1
VIEWPOINT 0 0 0 1 0 0 0
POINTS 1182
DATA ascii
-1.8420345 -8.6537008 -0.16237351 22.26
-1.9359336 -7.7176867 -0.37502271 21.039499
-1.8878956 -7.3686442 -0.1838527 22.03875
-1.8771733 -6.828527 -0.29508293 21.25
-1.8583757 -6.6938643 -0.20235983 21.953125
-1.812017 -6.134058 -0.1292543 22.450523
-1.7160472 -4.8777971 -0.17928566 21.674999
-1.8530657 -4.6428237 -0.11066134 22.247581
-1.8567423 -4.2019024 -0.054773856 22.6975
-1.7686095 -3.6948738 -0.1690637 21.281811
-1.8449248 -3.428086 -0.17563424 21.328188
-1.8863063 -3.184341 -0.18610275 21.166666
-1.700314 -1.3493621 -0.1410484 20.98394
-1.7923468 -1.1147212 -0.11369371 21.340416
-1.9608629 0.32773718 -0.36047322 17.5
-1.9766505 0.51499826 -0.38455617 17
-1.8905802 1.0426754 -0.18221104 19.533817
-1.8760748 1.4528263 -0.25204679 18.712198
-1.8439819 1.7737696 -0.17345962 20.051146
-1.6405629 2.3723087 -0.32856554 18.666666
-1.6519701 2.5125184 -0.18438148 20.434334
-1.7145907 5.86552 -0.1166181 22.146999
-1.8012713 6.2374587 -0.28231168 21.146749
-1.622892 7.0047398 -0.30144951 21.142334
-1.7847242 -8.6718206 0.1694613 23.9
-1.9165176 -7.6828666 0.19711757 24.178833
-1.8796194 -6.8116436 0.17575184 24.166666
-1.8819412 -6.7922282 0.29559088 25
-1.7243743 -4.8780537 0.18800443 24.644482
-1.8595619 -4.5403633 0.19259115 24.741133
-1.8423311 -3.6227374 0.18981408 25.03175
-1.8307585 -3.414135 0.17674835 24.965553
-1.6961826 -1.329427 0.073314302 24.31974
-1.7416004 -1.1034453 0.17649938 26.039667
-1.8660512 1.0091088 0.21676639 26.894722
-1.8516194 1.4275401 0.25283834 27.249685
-1.8337014 1.7992384 0.2306747 26.477831
-1.7924392 2.2152832 0.32535869 27.714558
-1.7941766 3.3974707 0.23689498 25.267334
-1.6666583 5.9385204 0.20947316 24.147499
-1.7064531 6.1319485 0.31475261 24.979832
-1.7028179 6.6913748 0.25820404 24.478998
-1.6806041 7.0533342 0.37038025 25.1425
-1.877926 -8.6688833 0.5433529 25.75
-1.8830216 -7.7402043 0.70061851 26.893875
-1.7774546 -6.8196821 0.56173134 26.5
-1.7253598 -4.8736248 0.59235322 27.884615
-1.8210956 -4.6882429 0.59139162 28
-1.7736212 -3.8404224 0.78547603 31.035
-1.765309 -3.5027204 0.59019899 29.255041
-1.6180218 -1.1649051 0.415528 30.0035
-1.9462816 1.0346377 0.43780801 31.167332
-1.8834797 1.4501748 0.44467676 30.194374
-1.8353472 1.923366 0.44019422 29.42153
-1.8037384 2.1425431 0.42339984 29.271791
-1.8025354 3.4247339 0.59330952 29.166666
-1.8515971 5.3082924 0.54685938 26.6495
-1.6984936 6.1034513 0.55217373 26.5215
-1.7194023 6.686832 0.6460222 26.894375
-1.6831872 7.0607738 0.53946942 26.1425
-1.8528303 -8.6873789 0.91651511 27.5
-1.9193822 -8.1437216 0.94715762 28.037001
-1.9216465 -7.7259622 0.91408938 28
-1.8349838 -6.8690352 0.93438613 28.683714
-1.7163687 -4.8619704 0.93264186 30.583334
-1.8159256 -4.6477551 0.89430928 30.492537
-1.8114246 -4.1365666 0.86082923 30.948479
-1.8202715 -3.7969599 0.83090669 31.029312
-1.7548243 -3.5313857 0.81367147 31.008749
-1.9184484 3.4080775 0.85863662 31
-1.7954257 5.4234238 0.9910354 29.649
-1.7355667 5.923471 1.0100737 29.480667
-1.8698728 -8.6804485 1.3417773 29.5
-1.9436233 -7.7019114 1.2979792 30.039499
-1.873841 -6.9051657 1.3441423 31.009501
-1.8868988 -8.67869 1.6606092 31
-1.4562559 -4.8441458 -2.9602735 1.4761906
-1.3879855 -4.8499413 -2.5969858 3.5227273
-1.4242625 -4.8686848 -2.3421712 5.2142859
-1.275079 3.4456255 -1.7679434 3.3
-1.2679911 3.4386833 -1.563993 5
-1.2257421 -6.2990942 -0.95577228 17
-1.5485015 -4.6999817 -0.92642248 15
-1.4930735 -4.1314368 -0.92496324 14
-1.505597 -3.6747735 -0.84865421 13.833333
-1.4308594 -1.6869099 -0.89237404 9.916666
-1.420365 -1.3628328 -0.86703861 8.2738094
-1.4243488 -0.95433521 -0.87410682 5.1527781
-1.5004078 -0.62342024 -0.85373336 2.9444444
-1.3540891 -0.34681284 -0.87372738 7.75
-1.3861724 0.37080145 -0.87440312 8
-1.3162795 1.0956315 -0.8272053 6.3333335
-1.3949128 1.3935513 -0.85870403 9.375
-1.2790931 1.9528648 -0.85814869 10
-1.4500253 2.2109389 -0.84330994 9.9388885
-1.2761148 2.6382787 -0.84932834 12
-1.2931253 3.0318825 -0.84380722 13
-1.2854365 3.4182177 -0.83474416 14
-1.5258054 3.966289 -0.83764505 15
-1.3580873 4.8123684 -0.83902591 16
-1.3486013 5.7607689 -0.80204022 17
-1.5036546 -8.6798048 -0.41756293 21.027418
-1.4988923 -4.8876066 -0.56411028 18.25
-1.5181736 -4.0136771 -0.69710088 16
-1.5108904 -3.7317493 -0.55207705 17.111111
-1.2863983 -2.018327 -0.65654707 11
-1.2472477 -1.7465258 -0.69424617 9.2857141
-1.4838921 -1.3920007 -0.61835235 12.986667
-1.4816798 -0.96738046 -0.66679311 11.299145
-1.4859778 -0.56560218 -0.56183881 10.231633
-1.3098239 -0.15001506 -0.52711564 3.0625
-1.3333505 0.34609103 -0.51585567 11.90171
-1.2780496 0.62667435 -0.54222494 8.742979
-1.2890657 0.99715841 -0.60655278 10.07303
-1.3873742 1.4050148 -0.68087697 10.900001
-1.5803931 1.7551439 -0.74680525 12
-1.5146872 2.1660666 -0.58582753 14.24537
-1.452806 2.6032774 -0.64221889 14.1
-1.4618026 3.0277104 -0.61439317 15.266667
-1.4104769 3.4182808 -0.60375327 16.107141
-1.2270368 3.790271 -0.62137151 16.280001
-1.2184578 5.5848994 -0.68978965 17.6
-1.3508763 -8.1638384 -0.13234538 22.346832
-1.4825814 -4.8934031 -0.20220089 21.375
-1.5067514 -4.0855012 -0.22492999 21.032249
-1.5091256 -3.7166409 -0.24469642 20.476944
-1.4294991 -2.4881372 -0.10615459 21.621899
-1.3495482 -2.2425377 -0.14658669 20.662287
-1.5587025 -1.3092262 -0.21028821 19.705
-1.4214164 -0.97727501 -0.18858568 19.872858
-1.5029757 -0.56926429 -0.18886407 18.576496
-1.3158962 0.64783126 -0.34786609 14.264706
-1.2985561 0.86976117 -0.33531269 14.821428
-1.3696587 1.7575241 -0.35821238 17.5
-1.4296324 2.2588165 -0.19850926 19.65238
-1.3831258 2.4653325 -0.11101763 21.204975
-1.3801537 3.4655824 -0.19292571 20.62229
-1.2221398 3.7871835 -0.19897904 20.673016
-1.2059835 4.1059003 -0.13168053 21.5
-1.2472767 5.1812377 -0.34812444 20
-1.2407503 5.5831637 -0.18744364 21.416668
-1.4351135 5.6238437 -0.10555043 22.144918
-1.479795 7.0470929 -0.31955251 21.140499
-1.579703 -8.6967621 0.19366486 24
-1.3145189 -8.2367907 0.12586334 23.680334
-1.4973698 -4.8981094 0.18226412 24.5625
-1.456514 -2.4878609 0.0058666291 23.030001
-1.36084 -2.2076445 0.0056769368 23.030998
-1.5823828 -1.2807119 0.23635806 27.033333
-1.5466218 -0.88236755 0.35987911 29.5
-1.5089504 -0.56897676 0.20245327 27.849043
-1.4144534 2.3774757 0.12542331 24.653915
-1.4148864 2.502074 0.093014173 24.133942
-1.3701967 3.4505725 0.24611332 25.442068
-1.2252095 3.8327975 0.24353097 25.364935
-1.2189089 4.2057967 0.27883315 25.472
-1.2458547 4.7170815 0.030194849 23.146999
-1.2720212 5.5658956 0.20224455 24.356176
-1.4672663 6.2471905 0.16884902 24.14175
-1.5709025 7.0446844 0.34268269 25
-1.3679581 -8.7157898 0.51195621 25.5
-1.5054018 -4.8987961 0.61194003 28.107098
-1.5617695 -0.96533883 0.43736511 30.726389
-1.4793367 -0.57818377 0.4457145 30.802898
-1.3238372 3.4005818 0.61274493 29.498148
-1.2444694 3.7521374 0.58276558 28.987181
-1.2430391 4.3283172 0.59544468 28.324001
-1.2932457 4.4981213 0.6458559 28.148876
-1.2480145 5.1048446 0.65831369 28.144501
-1.2953178 5.515099 0.6989131 28.071501
-1.5377833 5.6019602 0.70780027 27.573875
-1.3640196 6.5640531 0.64746755 27.141251
-1.5944955 7.0420113 0.56370944 26.333334
-1.4451339 -8.7269316 0.92666149 27.5
-1.5047333 -4.8855925 0.91015762 30.5103
-1.4255062 3.4588811 0.84528971 31
-1.2138077 3.8138399 0.85928291 31
-1.2386562 4.294683 0.87642604 31.074001
-1.4009043 4.7435713 1.062991 31.14875
-1.3046464 5.0332913 1.0579454 31.145834
-1.3637379 5.534977 0.9624961 29.924377
-1.3462861 5.7659869 1.1184797 30.6455
-1.4242136 6.1638451 1.0683802 30.142334
-1.2025965 6.5481458 1.1240225 30.141001
-1.2952771 7.0293746 0.95205259 28.641001
-1.4814961 -8.7108641 1.3431833 29.5
-1.2641753 6.5109038 1.2676185 31.140833
-1.4855806 -8.7006512 1.6601378 31
-1.0160619 -4.8634939 -2.9153495 1.1666666
-1.0223401 -4.8753614 -2.6133592 2.6944444
-0.96176797 -4.9051237 -2.3168595 4.5250001
-0.87395126 3.4203811 -1.7574905 2.8333333
-0.93180168 3.4284112 -1.5418595 5
-1.0634196 -1.4548002 -0.85099858 5.6599998
-1.1446424 -0.91924351 -0.88830376 5.4285712
-1.0624683 -0.68684226 -0.88061619 4.8333335
-1.1418813 0.35695162 -0.87119812 6.5
-0.9962436 0.71843308 -0.85866517 4.7698407
-1.0275167 1.0016148 -0.86124247 5.8611112
-0.99379373 1.4262397 -0.8660515 4.5083332
-1.0651482 1.8793486 -0.86463141 7.6666665
-1.0055219 2.1644049 -0.85432911 8.125
-1.0143044 2.6379473 -0.86037052 10.405556
-1.0600356 3.0620432 -0.84821689 12.1
-0.94924808 3.4584293 -0.85623616 12.708333
-1.0386049 3.7903075 -0.8419804 13.833333
-1.0681698 4.2162428 -0.83207977 14.785714
-0.96779978 4.6225948 -0.85807741 15
-1.1530752 4.8807478 -0.82889903 16
-1.0604219 5.2584038 -0.8505429 16
-1.0629312 6.2253451 -0.85836655 17
-1.0015182 -1.6500243 -0.5712871 11.323099
-1.0048896 -1.5843197 -0.52706331 13.666667
-1.16012 0.35841212 -0.61995733 11
-1.1749363 0.63008308 -0.54565281 12.167763
-1.1408862 1.36629 -0.68943888 10.833334
-1.1254661 1.6523383 -0.62216705 13
-1.0523211 2.137924 -0.59863502 12.870731
-1.0717056 2.6077178 -0.56080586 14.834184
-1.1085689 3.0595522 -0.55444115 15.866667
-1.1835028 3.9879017 -0.655756 16
-1.1654452 4.2058749 -0.62004328 16.715279
-1.1892899 5.5281849 -0.66935337 17.75
-0.94279081 5.7930455 -0.79398745 17
-1.0809503 6.934876 -0.78988093 18
-0.82950991 -3.8018215 -0.27836603 20
-1.0044643 -1.6493809 -0.35334012 15.958334
-1.1901939 0.78808379 -0.36890352 16
-1.0780305 1.4104481 -0.14916088 19.637209
-1.1299872 1.6565669 -0.19851753 18.579
-1.0107504 2.2857914 -0.10492647 21.005402
-0.98375285 2.5825911 -0.11810943 21.016825
-1.0906926 3.0531948 -0.25897026 19.456625
-1.1915519 3.9353197 -0.131915 21.333334
-1.1608075 4.2646761 -0.12646018 21.588909
-1.0162742 5.8973117 -0.15240993 21.787518
-1.0415856 -8.4750872 0.19967011 24.042999
-1.1719525 -8.2913532 0.19499832 24.0425
-1.0501827 1.4250188 0.02981603 23.672491
-0.97728503 2.3131883 0.072125934 23.840126
-0.91066378 2.6019409 0.07271032 23.745596
-1.1945475 3.9482889 0.28357673 25.5
-1.1639165 4.2422323 0.22130184 24.855782
-1.0421311 5.851573 0.15695848 24.031605
-1.131627 6.7795 0.35390201 25
-1.0265369 7.0062847 0.26757851 24.523417
-1.1324282 -8.732954 0.51449323 25.5
-1.1928607 3.9610581 0.61456966 28.700001
-1.161321 4.3131657 0.61299223 28.464533
-1.1958575 5.5708537 0.66118467 27.75
-1.1395581 5.9181876 0.48711678 26.473873
-1.1942871 6.2343388 0.69590372 27.641251
-1.1337483 6.782866 0.64078802 26.875
-1.0559572 7.0049696 0.59631932 26.528101
-1.1929305 -8.7411404 0.92873222 27.5
-1.1965903 3.9427564 0.88020045 31
-1.1629702 4.2954235 0.89380521 30.928572
-1.1657659 5.572876 0.9206292 29.833334
-1.1309981 6.7673645 1.0209606 29.25
-1.0699856 7.0062251 1.0038003 29
-1.1860664 -8.7247753 1.3441186 29.5
-1.1292106 6.7459993 1.3025528 31
-1.0515503 6.9916511 1.3392684 31
-1.1711015 -8.7167253 1.6598554 31
-0.59275174 -4.875669 -2.5264165 3.1666667
-0.63899273 -4.8885436 -2.3207786 4.6666665
-0.77036697 3.4224229 -1.7529279 2.75
-0.64916259 -0.83943588 -0.85245067 4.1666665
-0.61528218 -0.53803021 -0.87324631 2.3333333
-0.78311163 -0.36893412 -0.87613565 3.5
-0.77120256 0.362977 -0.87348223 3.5
-0.64463884 0.55489659 -0.87160605 2.8333333
-0.63750601 0.95998734 -0.86804295 4.416667
-0.62188041 1.3766007 -0.86697835 4.3333335
-0.72181791 1.7601538 -0.86079443 7.7678571
-0.55743068 2.183778 -0.85773015 7.7142854
-0.54736036 2.5936019 -0.85916775 9.8125
-0.62899441 2.9985359 -0.85773551 11.354167
-0.52515602 3.3813202 -0.8379783 12.766666
-0.64988792 3.6935167 -0.85463959 13
-0.71137172 4.114871 -0.85471946 14
-0.78061485 4.6636782 -0.8604185 15
-0.78382915 5.3046145 -0.85264337 16
-0.77359408 5.9907274 -0.82236409 17
-0.65977585 -2.036201 -0.70850962 9
-0.71389216 -1.7588545 -0.54107559 10.75
-0.43566638 -1.271107 -0.46685734 9.614583
-0.50929451 -1.0036228 -0.59856343 8.4081631
-0.60770237 -0.19463865 -0.53464758 9
-0.44338781 3.4787576 -0.67833561 14.433332
-0.72299469 5.7577009 -0.51851881 19
-0.43479201 -4.0424361 -0.28220508 20
-0.58072573 -3.7350922 -0.17270206 21.112936
-0.53011161 -3.5195053 -0.20690015 20.519375
-0.57232344 -2.0480103 -0.2121363 18.916666
-0.67481679 -1.7844635 -0.32682472 15.5
-0.47388032 -1.2574966 -0.2782985 15.261905
-0.4789415 3.4781628 -0.17622493 20.542858
-0.79798102 5.7899632 -0.1850659 21.5
-0.59726965 -4.8622713 0.34636235 26
-0.492879 -4.418993 0.15722625 24.527502
-0.53771204 -4.1974115 0.068326011 23.664644
-0.6942755 -3.8717782 0.0059647579 23.04125
-0.46483681 3.4745557 0.19356093 24.939814
-0.61009884 -4.8639455 0.59647775 28.142857
-0.47288933 3.458601 0.60400546 29.788889
-0.59578615 -4.8499279 0.87040526 30.5
-0.25069055 -4.8842854 -2.5924482 2.1666667
-0.16972125 3.3581262 -1.7433311 2.4571431
-0.20821774 3.3974698 -1.5401959 5
-0.2454011 -1.0041941 -0.86171997 0.5
-0.2312187 1.4298195 -0.85948265 2.6666667
-0.23092192 1.8267694 -0.83613801 6.7857146
-0.24510096 2.0693357 -0.83442122 7
-0.20738567 2.5970824 -0.86096281 9.416667
-0.17629151 2.9355116 -0.84390092 10.938889
-0.29922679 -3.6592193 -0.49295905 17.5
-0.38976747 -3.5492005 -0.43880197 18
-0.1754567 -1.2523875 -0.46463481 9.456542
-0.29428643 -1.1401784 -0.49793756 8.1904764
-0.14173475 -0.14164731 -0.51193213 4.1717172
-0.13613135 0.14129719 -0.53644884 3.6055555
-0.047240619 1.9817376 -0.7773127 6.25
-0.062300894 2.1540232 -0.76842123 8.1999998
-0.14222834 2.9854918 -0.67362303 13.100308
-0.28287792 3.3867655 -0.5645681 15.583334
-0.14944501 -4.8442454 -0.069096588 22.38525
-0.20262478 -4.5834565 -0.099412568 22.045252
-0.26015657 -4.0688844 -0.14474365 21.458166
-0.31049252 -3.6878812 -0.22589281 20.385563
-0.14399458 -2.1039443 -0.20756121 18.85
-0.031114971 -1.8985721 -0.17079674 19.1
-0.25151497 -1.2593325 -0.26746154 15.551408
-0.29647124 -0.003336746 -0.14785284 16
-0.2040655 3.3632462 -0.13875243 20.894012
-0.16304305 -4.8506398 0.17754441 24.506428
-0.23208153 -4.5831532 0.15291087 24.397781
-0.29661623 -4.0758157 0.064504206 23.608549
-0.23136772 3.3784306 0.21367165 25.285204
-0.20089275 -4.874414 0.5820877 28
-0.013865267 -4.1819811 0.49905676 28.045
-0.1963889 3.1703961 0.65906626 31
-0.21317011 3.3427882 0.56869847 29.647987
-0.19937289 -4.8567781 0.87142932 30.5
0.35583654 -4.9340806 -2.80914 1
0.26419377 -4.9067526 -2.6298163 2.0333333
0.30096647 -4.9721484 -2.3794639 4
0.2178352 3.3409688 -1.7580187 2.0833333
0.37483066 2.7920873 -1.4333181 2.5
0.032007884 1.3499618 -0.85842079 1.35
0.20882486 2.256953 -0.84682667 7.2777781
0.24872378 2.6042829 -0.84709114 9.3253975
0.15682304 2.9026463 -0.80719882 11
0.26989672 -1.353104 -0.49367851 8.523159
0.13257396 -1.0257596 -0.50845474 6.5
0.0010426278 0.10881601 -0.53779292 1.5
0.14024265 1.3605247 -0.47516057 8.583334
0.17890367 1.7833853 -0.55680287 10.067778
0.05669966 2.1497226 -0.76775283 8.75
0.2866348 2.6259942 -0.68612725 11.738461
0.27923366 2.9813201 -0.62902439 13.75
0.17751381 3.3293779 -0.5112288 16.166666
0.19031608 -4.8571486 -0.337336 20
0.054990422 -4.6793752 -0.081792444 22.197748
0.15331322 -4.1203079 -0.093769863 21.928572
0.35436893 -3.3065586 -0.22451669 20
0.3425447 -3.0015495 -0.098774098 21.428572
0.37337568 -2.471602 -0.10133552 21.055555
0.38074109 -2.1964846 -0.10172831 20.838282
0.25994268 -1.8226086 -0.10438913 20.327024
0.31735843 -1.3753384 -0.17014498 17.559444
0.075624429 1.1708457 -0.21938802 14
0.14553583 1.3521657 -0.1610727 17.521566
0.25058347 1.7038293 -0.16409647 18.523081
0.39649904 2.9713097 -0.057857092 21.939499
0.24399921 3.3256595 -0.11167511 21.192749
0.13395001 -4.8652101 0.24076265 25.035583
0.19840184 -4.7318168 0.22762312 25.046333
0.19104107 -4.154757 0.19949825 24.941389
0.35998964 -2.9446654 0.22776413 26.045568
0.37631378 -2.465899 0.2226163 26.479015
0.38723892 -2.1960287 0.20419021 26.505835
0.37569043 -1.80277 0.2220258 27.615747
0.385061 -1.3736517 0.18771268 28.072832
0.34320927 1.2968681 0.074638769 24.709328
0.33376938 1.8225393 0.03192747 23.1415
0.31146392 2.9184334 0.24735682 26.330616
0.18741012 3.3270001 0.19077477 25.004629
0.040206999 -4.885386 0.58448154 28
0.22151834 -4.1508379 0.50638199 28.045626
0.3640388 -2.8592029 0.49690402 30.012125
0.37289053 -2.4699028 0.47900134 30.682999
0.37890291 -2.2409089 0.44794518 30.900812
0.38291845 2.7918997 0.52805829 30.5695
0.37885588 2.905102 0.4961589 29.960333
0.22414984 3.3018212 0.52439368 29.350416
0.20475021 -4.877212 0.87853879 30.5
0.64168501 -4.9413605 -2.8351052 1
0.55014282 -4.946064 -2.5791657 2.5999999
0.4825919 -4.9506435 -2.3174183 4.4000001
0.45397446 2.7790079 -1.4447237 2.1571429
0.62819546 1.9521281 -0.85806733 5
0.61435241 2.1981459 -0.86015332 6.7888885
0.56832111 2.6743996 -0.84694594 9.5035706
0.43472272 -1.6634575 -0.59404826 8
0.59933168 -1.4521307 -0.52638578 8.712719
0.65505761 1.5302773 -0.60942024 6.6333337
0.49106425 1.7007062 -0.65896392 7.0555558
0.52395838 2.7337604 -0.66777676 12.34
0.46182647 -4.1412506 -0.034349021 22.5
0.40257674 -3.3173473 -0.22478344 20
0.41456807 -2.9645658 -0.08498133 21.652
0.40255427 -2.3885407 -0.042573653 22.053249
0.572496 -1.6840932 -0.084882632 20.624979
0.5529511 -1.4504817 -0.1344462 18.907581
0.68074268 -0.89422023 -0.10093215 18.694378
0.76127249 -0.70488316 -0.078229472 19.285553
0.61734569 1.292056 -0.11829107 18.584652
0.62716329 1.6775081 -0.080150336 20.373621
0.56601828 2.7802565 -0.038646478 22.019249
0.40120667 3.1225083 -0.04290108 22
0.40939859 3.3246496 -0.056324307 22
0.49508563 -4.9022703 0.28337601 25.349167
0.59559774 -1.7177593 0.21475434 27.78043
0.56760544 -1.4364076 0.17120922 27.407701
0.75548202 -1.1330148 0.069628574 25.038799
0.6057409 1.3842559 0.19626433 27.789608
0.61374128 1.7756004 0.20894852 27.067194
0.60489601 2.7758615 0.17558101 25.176186
0.41072348 2.8077695 0.2404851 26.25
0.40688023 3.3277545 0.17719482 25
0.54695797 -4.9079838 0.71289629 29
0.50525242 -4.1501703 0.44273892 27.383417
0.59520799 2.7569201 0.5046804 30.083334
0.59928179 -4.8945994 0.91518092 30.683832
1.036256 -4.9632363 -2.8916671 1
1.1017603 -4.9969578 -2.5874512 3.1333332
0.95985073 -5.0177531 -2.3033807 5
1.1106454 -1.668034 -0.8974393 6
1.1716695 -0.89588213 -0.87868822 2.1666667
1.1994225 0.66040641 -0.87116897 0.875
0.98384309 1.0206852 -0.84048468 1.5
1.0775675 1.327865 -0.85164785 4
0.99374801 2.1879044 -0.84878761 7.375
0.92139429 2.627037 -0.8294729 9.7726192
1.1755689 3.7519267 -0.83923417 13
1.0051545 -1.4641653 -0.54432952 9.2179499
0.97300607 0.99430919 -0.66293967 4.7894249
1.0592133 1.4142152 -0.57032698 8.2144661
0.89134729 1.6339793 -0.59319019 8.583334
1.029985 2.7475102 -0.70691019 11.916667
0.9762212 -1.497943 -0.14165951 19.121784
1.0543108 -0.8914097 -0.081212088 19.792601
1.0081058 -0.71048921 -0.0693027 20.157932
1.0768514 1.3050056 -0.12237593 18.978376
0.9804886 1.6706772 -0.10798289 19.937107
0.89999294 2.7622645 -0.03619238 22
1.1367985 2.9141927 -0.013869394 22.134251
1.1055171 -1.6083324 0.29344854 28.777857
0.99183118 -1.4970914 0.19264485 27.549648
0.95317489 -0.98553026 0.22107068 28.557993
0.85680723 -0.73780388 0.032859083 23.546188
1.1565841 1.5932617 0.03994894 23.128
1.1561189 1.6314924 0.036981042 23.2225
0.93943256 2.7565844 0.18688008 25.20339
1.1151813 2.9848547 0.31130084 26.741209
1.1393347 3.2136898 0.27896085 26.131998
1.149963 4.223073 0.31257048 25.634501
0.92400301 -4.942493 0.69862908 28.692917
0.96487701 2.7392344 0.54204863 30.562649
1.1390712 2.9448705 0.53352559 29.911591
1.134065 3.4299536 0.50478369 28.566
1.1482832 4.2593303 0.67388111 29.134501
0.8968665 -4.9209113 0.91776156 30.5
1.2088021 -4.96382 -2.9158244 1
1.5455638 -1.3179772 -0.88222247 6.5999999
1.5048286 -0.96935648 -0.87435561 3.8541667
1.4133699 -0.61765647 -0.88310111 1.8624339
1.5455503 0.63960135 -0.87099904 2.4375
1.4341518 1.0533133 -0.85652077 2.9375
1.3801986 2.6347747 -0.81694323 11.222222
1.3369371 2.9822264 -0.83337659 11.583333
1.3029987 3.4018352 -0.84682882 12
1.3127818 -1.4585215 -0.53280085 11.395834
1.5699418 1.1658332 -0.70670396 6.9714284
1.3895524 1.2620358 -0.56227487 8.7936506
1.4244509 1.7451011 -0.51746374 11.318435
1.3630742 -1.4650294 -0.032490589 21.565434
1.4685104 -1.061699 -0.04368956 21.571499
1.2619132 -0.65475661 -0.14013654 18
1.5532194 1.1616464 -0.093585312 20.07575
1.3379718 1.2482147 -0.11715725 19.100447
1.4037496 1.6829904 -0.13192138 19.240011
1.4464455 3.3116715 -0.017897971 22
1.3677473 -1.7073127 0.31102121 29.868509
1.3939149 -1.4724183 0.16106541 26.571167
1.4483763 -1.1844572 0.26970094 29.749228
1.4593811 1.8796638 0.02771824 23.114916
1.4573069 2.0252044 0.040709112 23.123501
1.4179767 3.3092365 0.20138645 24.907217
1.465745 3.8392723 0.33192763 26.130249
1.275118 5.1984944 0.074891143 23.134001
1.4126781 5.2019 0.062937066 23.132
1.585156 5.7320514 0.20321432 24.1315
1.3614899 -1.4306957 0.43889824 31.069498
1.3807555 3.3634052 0.47024551 28.279099
1.5999511 3.6728048 0.50259292 28.129
1.2639638 5.1062784 0.92459005 30.134001
1.4642814 5.3575115 1.1031663 31.132999
1.3864666 5.6074071 1.1504885 31.133499
1.433939 6.3123097 1.1355404 30.133499
1.8510181 -2.4384732 -0.90272754 8
1.9506806 -1.308346 -0.8691045 7.9285712
1.8714559 -0.97697747 -0.86429769 6.5500002
1.8805031 -0.6116339 -0.88501048 5.1607141
1.9301707 -0.22948802 -0.88210672 6.1999998
1.8242556 0.27745876 -0.87025684 5.5999999
1.9107369 0.62518537 -0.86978871 5.416667
1.837522 1.0461016 -0.85356587 5.1250005
1.9420105 1.2645673 -0.86209482 7.5
1.6696161 3.0210385 -0.80990791 13
1.6530832 3.2482736 -0.81376201 13
1.7885988 -1.4436214 -0.54888272 10.25
1.6973016 -1.038892 -0.58183736 10.363333
1.634921 1.1717464 -0.52876365 10.760417
1.6451161 1.2013686 -0.44616482 14
1.6777406 1.6970654 -0.54302365 10.196078
1.6119668 2.822346 -0.76356095 13
1.7360461 -1.9007372 -0.28098547 16.5
1.6312134 -1.3106418 -0.066545926 20.529875
1.7155318 -1.044808 -0.19040954 16.85162
1.6977265 1.172596 -0.18959057 17.236038
1.7344102 1.2780957 -0.15425155 18.732735
1.6528721 1.6745292 -0.16206834 19.29513
1.7368193 -1.2161237 0.026277164 23.074499
1.6429198 -1.1836845 0.19300897 27.170902
1.840701 1.3003708 0.19360301 26.637226
1.6794945 1.874161 0.026092725 22.786501
1.6402217 3.2892582 0.12223355 24.124126
1.652696 3.7411299 0.34751439 26.296417
1.7782214 5.1719069 0.31474438 25.129999
1.9411662 6.5321779 0.38789135 25.130501
1.6493319 3.7453096 0.51285273 28.127832
1.8540634 6.5640655 0.40215501 25.131874
1.7908242 5.1275339 0.88966757 29.62578
1.7206568 5.4614854 1.1241947 31.130875
1.8028754 6.2511134 1.1281989 30.131374
2.2303452 -2.1865261 -0.87626636 9.5
2.1240726 -1.8174797 -0.868146 9.541667
2.2808013 -1.3265148 -0.86308366 9.5
2.2263341 -0.98830265 -0.84891647 6.7361107
2.220258 -0.64809036 -0.88206661 5.2793655
2.2260919 -0.26628622 -0.8795892 6.6666665
2.2216067 0.24596773 -0.8711822 6.6666665
2.275306 0.60319918 -0.86583984 5.5999999
2.2469087 0.97900021 -0.86356127 4.9583335
2.2583764 1.3577322 -0.86303866 7.7074075
2.28318 1.7214166 -0.86315989 7
2.1524332 2.1895919 -0.85787427 8.375
2.2760038 2.523308 -0.85231763 10
2.2776845 -2.1122823 -0.6081816 13
2.2349191 -1.8230706 -0.61484832 12.940476
2.2123122 -1.3820671 -0.50023872 13.216667
2.1664441 -0.98193067 -0.48616466 12.093056
2.3984601 -2.1160829 -0.16277024 19.781124
2.2953305 -1.8346756 -0.14211319 19.864504
2.2870088 -1.4772829 -0.19926819 18.352579
2.1703224 -0.9369154 -0.28592727 15.885859
2.3828576 -1.6568847 0.022156781 23.0725
2.3760269 -1.5908813 0.02232556 23.073
2.2701986 6.8198929 0.48547086 25.452049
2.1066854 6.7923245 1.1429118 29.629999
2.2608988 6.8054514 1.1357644 29.375
2.2470217 6.7913609 1.4058703 31
2.6743703 -1.6031203 -0.87599766 8
2.5300353 -1.3738381 -0.84827691 8.75
2.5426791 -1.0358275 -0.84221786 7.1361108
2.5720937 -0.65369612 -0.88058603 5.8166666
2.7022872 -0.21040626 -0.87618411 9.5
2.7018638 0.18472488 -0.87259805 9.5
2.5868196 0.55019993 -0.86708915 5.875
2.5824671 0.94014817 -0.86094916 6.8375001
2.5655119 1.3193976 -0.85933656 7.040741
2.5760746 1.7844633 -0.85805285 10.083333
2.5879729 2.1064031 -0.85642636 10.354167
2.4986255 2.4874897 -0.85287994 10.333334
2.5304308 3.0165589 -0.84660369 11.916667
2.5295882 -3.7730546 -0.55226159 17
2.5418813 -1.3890362 -0.6023612 11.696969
2.5595181 -1.1054344 -0.73738974 8.128788
2.7266238 2.8292186 -0.55205303 15.5
2.653996 -4.6604772 -0.10764977 22.05525
2.7072346 -4.3099356 -0.055732932 22.407721
2.5758796 -2.1322401 -0.042633433 21.983561
2.7121937 -1.662147 -0.048474893 22.074917
2.5597968 -1.5161711 -0.095501021 20.830872
2.6124539 2.7556107 -0.011261459 22
2.6810448 3.0281386 -0.016620485 22.047649
2.6840658 3.6282439 -0.035938278 21.915503
2.7617421 -5.0266137 0.09574537 23.75
2.7207472 -4.7425642 0.28022432 25.388834
2.7356431 -4.3208609 0.22326547 25.01125
2.6031034 -2.2299633 0.028165203 23.067501
2.5017624 -1.6896831 0.066027604 23.68976
2.5225255 -1.5688858 0.027112773 23.074749
2.6194444 2.7413862 0.23039018 25.165001
2.6528344 3.1013429 0.20820375 24.722715
2.6510406 3.2987101 0.3027724 25.713207
2.6546142 3.6285098 0.21838082 24.645685
2.4325726 5.0903254 0.199375 24.126499
2.7800362 6.7897801 0.36428559 24.666666
2.5441067 6.8042774 0.3165558 24.333332
2.7706506 -4.9567413 0.58338106 27.777752
2.7609289 -4.3811417 0.44392937 27.056499
2.6330237 2.734158 0.62738782 29.810106
2.613193 3.0508804 0.65961194 29.832941
2.6045749 3.211376 0.59322029 28.833334
2.6456594 3.6209908 0.63740897 28.85199
2.7796214 6.7666316 0.58457333 26
2.5516241 6.8067837 0.564291 25.891188
2.7717688 -5.0374308 0.87059808 30
2.5876563 3.1132903 0.82586741 31.056999
2.6516135 3.3338585 0.83592355 31.079168
2.6416893 3.61198 0.88122123 31
2.6140757 6.7900481 1.086197 29
2.5708449 6.8006992 0.91406322 28
2.6020837 6.7726545 1.4210128 31
3.1173558 -4.1494265 -0.85364014 15
3.0483556 -3.7706685 -0.88453645 14
2.960979 -3.3785768 -0.89393038 13
3.1036096 -1.2293189 -0.80186737 8.5
2.9690869 -1.0751091 -0.84864783 9.3265867
2.984659 -0.60673749 -0.8768459 7.4833326
3.0179565 -0.27675676 -0.87919259 8.333333
3.0221281 0.15330984 -0.86583763 8.3999996
3.0133822 0.53512955 -0.84545654 8.0716667
2.9812958 0.98336095 -0.8419109 9.041667
2.8775804 1.3226467 -0.83436137 9.5252523
3.0218444 1.7118188 -0.84912741 10.466667
2.9786 2.1381495 -0.85492617 11.5875
2.8901374 2.6065702 -0.84149927 12.138889
3.1610353 2.8003416 -0.84246969 14
3.130372 -5.0001206 -0.74919093 17
2.9461756 -4.4599085 -0.72283363 16.5
3.1016238 -4.3302026 -0.54598451 18
2.9805374 -1.7917917 -0.49683201 14.783333
2.9893732 -1.2472167 -0.57970309 13.093846
2.8684309 -1.193936 -0.64330578 11.826923
3.0860407 0.33658534 -0.75939357 13
2.9975376 0.54188627 -0.53376466 13.719745
2.8879118 0.98052722 -0.57548314 12.988221
2.9199116 1.4167664 -0.59806645 13.140323
2.9905164 2.7831752 -0.61898977 14.935607
2.9887247 -5.0413675 -0.24474187 21.05625
3.1524503 -4.5632348 -0.1051522 22.058167
2.9759908 -1.8463653 -0.028254401 22.070438
2.9364331 -1.3233311 -0.14052983 20.306427
3.0210066 0.57217807 -0.18351959 19.309668
2.92397 0.95640188 -0.14886871 19.809362
2.9882693 1.4503927 -0.14380758 20.143393
3.0200949 2.7814856 -0.069035351 21.446512
2.802417 2.8679113 -0.038618688 21.786417
3.000427 4.8694696 -0.037046276 22.1245
3.1209886 -5.0128345 0.19487612 24.556999
2.9803095 -4.4620609 0.010107545 23.057501
2.9442456 -1.3399181 0.11639423 24.29903
3.0806499 0.60858208 0.12348978 24.265394
3.1403785 1.4090188 0.19790967 25.149408
2.9467826 2.727248 0.098591581 23.506987
2.952847 2.8032913 0.14050913 23.973787
2.8855059 3.2207279 0.36082998 26.362566
2.9480927 4.9283719 0.053374961 23.121063
2.9877014 6.7532616 0.29366404 24.200001
3.1171184 -5.0375357 0.58107436 27.451401
2.8876097 2.714931 0.64291757 30.046696
3.089278 2.9058321 0.61627567 29.273191
3.0480738 3.3814621 0.52726853 27.802362
3.0901093 6.7579956 0.6813457 26.5
3.1234868 -5.0592012 0.89761239 30
3.1259508 3.1974397 0.91283864 31.112
3.0958991 3.222312 0.8687045 31.11375
2.8635659 3.6287127 0.8203221 30.115
3.0277734 6.0737753 1.0051529 29.125874
3.0535374 6.730669 1.0646878 28.833334
2.9856925 6.7605805 1.4162053 30.891068
3.462651 -4.2673631 -0.84230143 15.5
3.4377141 -1.2237617 -0.82701874 11
3.3825686 -1.1294613 -0.84162778 10.719999
3.4097395 -0.67999589 -0.87552845 9.7199993
3.3694308 -0.2351955 -0.84088027 9.6861115
3.4442666 0.15586561 -0.8311941 10.664583
3.3876438 0.58665228 -0.83682197 10.666667
3.2428589 1.0750629 -0.85287476 9.666667
3.4285822 1.2993882 -0.8495754 10.916667
3.4092088 1.8342507 -0.85222936 12.666667
3.3713603 2.1841111 -0.85715926 12.8
3.3300977 2.6453331 -0.82839805 13.107142
3.5808997 2.8307838 -0.8509295 15
3.4867773 -4.9845672 -0.63505626 18
3.5266197 -4.3839965 -0.57013649 18
3.394706 -1.232353 -0.62766087 14.701179
3.396498 -0.1579515 -0.71881181 10.85
3.5202062 0.19251662 -0.61208284 13.858925
3.4484601 1.166986 -0.41324463 18
3.3328214 1.4400687 -0.46917549 16.132326
3.410918 2.734695 -0.5984 15.796078
3.5894775 2.9122081 -0.5564397 16.625
3.3881369 3.2010653 -0.44276321 17.5
3.4583364 -5.0274353 -0.22354156 21.206333
3.506835 -4.7385416 -0.22442006 21.061251
3.4638782 -4.3487716 -0.17030595 21.383619
3.3926516 -1.2463163 -0.18047115 20.109625
3.5101073 0.16869453 -0.097218983 20.957272
3.4144053 0.4691039 -0.10159954 20.911802
3.4167807 0.91054511 -0.058050558 21.661781
3.3815296 1.4469866 -0.26198342 18.767611
3.3989968 2.7222571 -0.14014471 20.766537
3.5374479 2.9260421 -0.19487152 20.105518
3.3530014 -5.0663381 0.17547627 24.25
3.318985 -4.6030521 0.21747731 24.66868
3.4198339 -1.2636924 0.13984868 24.433432
3.5153918 0.15064414 0.055853505 23.323515
3.4713519 0.67886204 0.27143049 26.096626
3.3600712 0.93176776 0.2037283 25.106478
3.3114245 1.2966571 0.2129734 25.399323
3.4664569 2.6985052 0.20323353 24.538406
3.5015581 3.0889368 0.24192728 24.824421
3.4693468 3.3693593 0.32249165 25.545528
3.334672 6.7309575 0.31098068 24.331785
3.3779855 -5.0752449 0.5175485 26.889626
3.2751381 -4.5837317 0.62946355 28.135651
3.2861915 -4.3892055 0.68284333 28.561251
3.5147257 0.94574887 0.56234318 29.722221
3.4607875 2.6871965 0.62135708 28.939135
3.5070777 3.0221221 0.56718034 28.008778
3.3807871 3.2953947 0.52571416 27.570667
3.594918 6.0241241 0.7182216 27.123501
3.3548756 6.6825347 0.63937271 26.242424
3.4359965 -5.0754952 0.98701245 30.373001
3.4897389 2.686985 0.88687968 31.021601
3.4588118 3.0732186 0.91009837 30.999533
3.3698249 3.2250733 0.90617651 31.112499
3.4352512 6.0981603 0.86035138 28.121
3.3947449 6.7074046 1.0068334 28.383333
3.3862987 6.7351952 1.4045556 30.707499
3.7978039 -1.2376662 -0.81014532 13
3.8332598 -1.11754 -0.84577423 12.517858
3.8156903 -0.58111644 -0.87496114 11.875
3.7480257 -0.38546753 -0.87231255 10.75
3.612026 0.10458211 -0.83144534 9.5625
3.6113665 0.48589307 -0.85900444 10
3.7050185 1.3173178 -0.85899031 13.5
3.8108649 2.2478032 -0.85560191 13.5
3.8417251 2.5959935 -0.8337146 14.291667
3.6777115 2.9031982 -0.84414411 14
3.7898884 -1.2435853 -0.61051852 15.165344
3.9269369 -0.1311371 -0.6278348 14.426985
3.8296552 0.2003261 -0.57291222 14.77344
3.9048369 0.41593081 -0.51497328 15
3.7323558 2.7017446 -0.5978924 16.052206
3.7743452 -4.5399032 -0.21917287 21.063
3.9383531 -4.3817272 -0.10267688 22.0625
3.7971873 -1.2550027 -0.18457988 20.357559
3.7333617 0.30213779 -0.25249702 19.09898
3.8595691 0.42045254 -0.35920644 17.875
3.6675279 0.9836185 -0.0075295875 22.075687
3.6683519 1.273136 -0.053900696 21.878778
3.874131 2.6834552 -0.20939413 19.990702
3.8755584 -5.0926304 0.1258546 23.745533
3.8675585 -4.5077467 0.09520226 23.608503
3.7310987 -1.2771803 0.24183406 25.546917
3.7276256 0.96882045 0.3196266 26.478523
3.6190023 1.2266307 0.17004716 24.55125
3.8605907 2.7061226 0.19338229 24.421238
3.7961316 3.0326617 0.24318159 24.858322
3.8405111 3.2541537 0.30361357 25.306374
3.8527966 5.8813996 0.14911726 23.6199
3.7912827 6.1312299 0.29526141 24.536896
3.7993085 6.6886077 0.2724863 24.186298
3.8598568 -5.1148281 0.55613786 26.853668
3.8443625 0.76182282 0.54531491 28.763166
3.6855559 1.026983 0.56259388 29.285358
3.8483906 2.7095437 0.62244189 28.489052
3.8088064 2.8101933 0.6396845 28.646305
3.7152138 3.4586272 0.533584 27.448502
3.8741889 6.1600094 0.63506001 26.47118
3.7875881 6.673986 0.64540917 26.271311
3.9488311 -5.1069579 0.97560036 29.765501
3.9073913 2.6614521 0.91794407 31.10775
3.9120579 3.0370982 0.92068934 30.749098
3.7946737 3.2136562 0.88989007 31.11525
3.9526808 6.0907311 1.0283418 28.784351
3.8951297 6.6661053 1.0550998 28.536549
3.9297647 6.1258512 1.3284564 30.53075
3.8296633 6.6944356 1.4169387 30.572222
4.1659036 -1.2434222 -0.81744677 14
4.2491212 -1.1030045 -0.84413081 13.516666
4.1922207 -0.56505877 -0.87701333 12.083333
4.020175 -0.3779496 -0.87211114 14
4.2758994 2.3507063 -0.86271954 15
4.1710148 2.6443288 -0.83463961 14.333333
4.2250938 -1.2712204 -0.58161038 16.188236
4.3871808 -0.019696975 -0.41579998 17
4.1732688 2.7744615 -0.55084628 17.125
4.0987053 2.8008249 -0.51170141 17
4.0401525 -4.5216517 -0.09933272 22.063375
4.2331095 -1.2726395 -0.15405478 20.819805
4.3156805 0.32967323 -0.36177161 19
4.0224786 0.5760504 -0.011745146 22.096251
4.3860483 2.6373355 -0.10456856 21.5
4.39294 3.0734124 -0.051453479 21.80575
4.2670503 -5.1290922 0.31195927 25
4.2094836 -4.6276865 0.2253563 24.560932
4.2462974 -4.1403909 0.14180024 23.932116
4.1744304 -1.2697132 0.15583289 24.263998
4.2584958 0.32787547 0.13232104 24.092501
4.2692647 0.52681953 0.071247533 23.312519
4.1804972 0.84751821 0.25556049 25.314751
4.1722765 1.2075766 0.13616633 24.098499
4.2591181 2.6546092 0.22801019 24.487234
4.1652446 2.9731989 0.29690334 25.256016
4.2733421 6.1775365 0.23570897 24.009193
4.298378 -5.1397028 0.60075092 27
4.2135491 -4.638402 0.62686634 27.612549
4.2680354 -4.2665467 0.68189585 28.180548
4.1442418 0.9071753 0.62224209 29.65111
4.2836256 2.6516175 0.6261276 28.188742
4.2958126 3.0145216 0.53536969 27.109562
4.1971941 6.1288414 0.74621487 27.119331
4.2598557 6.6295552 0.59316516 25.954
4.299108 -5.1233473 0.99490225 29.566311
4.2586579 -4.6001239 0.99772793 30.474167
4.3122168 -4.3323693 0.99482745 30.592768
4.3166089 2.6524765 0.92518246 30.708769
4.2117815 2.9568591 0.92244965 30.832666
4.186327 6.1880612 1.0594726 28.869442
4.1536484 6.6665125 1.0035385 28.286749
4.2780676 -5.1176019 1.2104542 31.063499
4.0875888 6.1264086 1.2644335 30.11825
4.1638193 6.658751 1.4612892 30.787165
4.6071515 -1.2721829 -0.85798055 15
4.6008868 -1.0891082 -0.8502332 14.183332
4.5903411 -0.60682464 -0.87640488 13
4.6369534 -0.39739171 -0.87996405 15
4.5535893 2.6376588 -0.84914923 16
4.6325078 -1.2902685 -0.58419859 16.75
4.7436976 0.14342032 -0.41887036 17.5
4.4848723 2.6747315 -0.55071253 18.1
4.6091986 -1.3030499 -0.12488743 21.30711
4.6503224 0.23074654 -0.32459161 19
4.4979959 0.4489696 -0.28267562 19.666666
4.5108118 2.738312 -0.21500617 20.683218
4.4754972 2.9246202 -0.18572125 20.874781
4.4308558 3.5109353 -0.048133161 22.112
4.7736759 4.2856145 -0.037392277 22.115
4.4627361 -4.5690207 0.35203296 25.5
4.4803038 -3.9659479 0.18695971 24.070499
4.742106 -1.8601507 0.38290679 26.0795
4.6326232 -1.3163139 0.1466741 24.117678
4.5632243 0.70337194 0.07068073 23.096334
4.5657387 0.92688584 0.1402193 23.89695
4.6208105 2.6351471 0.24542066 24.578217
4.5116277 6.1478028 0.14177123 23.616501
4.4301167 -4.5170846 0.54524499 27
4.7492723 -1.7295679 0.5864315 28.097666
4.7384777 -1.5154353 0.56548864 28.048695
4.6552181 2.6387672 0.65742135 28.084848
4.6160808 3.0321577 0.41661701 26.11075
4.5840678 6.2444921 0.6929847 26.616501
4.5266843 6.6639409 0.48076856 25.319448
4.5620484 -5.1390252 1.1391814 30.563751
4.5459461 -4.4131284 0.94448173 30.065001
4.6526375 2.6335313 0.93903404 30.44755
4.7593536 2.8775721 0.98295999 31.109501
4.5036387 6.1456122 1.0661997 28.784918
4.7384639 6.6838408 1.0170352 28.121
4.738349 6.0113649 1.521403 31.115499
4.7590017 6.6492829 1.4531909 30.451166
4.9923763 -1.2676146 -0.82813334 15.444444
5.0230217 -1.05172 -0.85819858 15.5
5.0011835 -0.62646705 -0.8777675 13.8
4.8558884 2.7246678 -0.85694265 16
5.0248723 -1.3093107 -0.56830543 17.418253
5.0603995 0.042832885 -0.41892126 18.5
4.8332973 2.6708729 -0.48406035 19
5.0167394 -1.3125985 -0.19377999 20.742222
4.9425468 2.7209439 -0.1546054 21.479822
5.0263262 2.8115993 -0.086903356 22.10475
4.9163504 4.2215447 -0.041926149 22.113501
4.9981055 6.6331434 -0.25819859 21.119499
5.0482965 -5.159903 0.30186248 24.788277
4.9794316 -4.2423954 0.034823731 23.070499
5.0342898 -1.3677169 0.17524947 24.132875
4.961617 0.39024958 0.043473952 23.092501
4.9991026 0.56232691 0.16556799 23.983223
4.9599051 2.5909975 0.22318278 24.372196
5.0787573 5.9873929 0.28145206 24.1185
4.9591556 6.2787395 0.24132234 24.116001
5.0597997 6.6499262 0.38445923 24.7015
4.9467044 -2.1022432 0.54820585 27.328375
4.9960423 -1.9253602 0.63832104 28.245749
4.9789209 -1.4726676 0.54153389 27.693666
4.9773273 2.6327538 0.63860178 27.753281
4.986341 6.1058741 0.60123605 26.116001
4.9114537 6.6054688 0.54154861 25.617813
5.1865005 -5.1723194 1.1697788 30.0665
5.0345507 2.6337485 1.0088571 30.461081
4.998991 6.0643878 0.80124617 27.115
4.9585934 6.6682391 1.0328326 28.118052
5.0034895 -5.0804777 1.364373 31.067375
4.9645548 6.5770559 1.4633856 30.366627
5.4189677 -1.254153 -0.83783638 15.333333
5.331326 -1.1030412 -0.86199337 15.444444
5.3509007 -0.63753873 -0.87213516 14.666667
5.406424 -1.3274662 -0.61491925 17.299999
5.4725976 -0.048869517 -0.45457199 18
5.2340102 0.021090407 -0.41579869 18.333334
5.3040094 2.7576394 -0.52323657 19
5.3742857 -1.3318365 -0.18198587 21.071428
5.3119488 2.5707948 -0.087977909 22.034166
5.3025088 -5.0900636 0.36605144 25.013699
5.4013343 -4.7283516 0.30839014 24.694248
5.4282131 -1.3720713 0.1464854 23.82485
5.3244581 2.6053727 0.19112223 23.949751
5.5353227 2.8111935 0.2622768 24.604
5.5171022 6.6516709 0.26282543 24.115
5.3467946 -5.133882 0.60313851 26.509085
5.5687742 -4.7521596 0.5104329 26.068748
5.5270057 -1.6355758 0.6152246 27.0825
5.5642152 -1.5957868 0.61049056 27.582001
5.3692379 2.5576317 0.69456345 27.847578
5.3966589 6.6481948 0.46386442 25.11525
5.5909925 -5.2021856 1.0771641 29.210501
5.4444036 -5.1860871 1.0781679 29.404858
5.3390193 2.5387003 0.9845472 30.036068
5.3931928 6.6485853 1.0756406 28.11525
5.379879 -5.1195436 1.3246777 31.040298
5.4997096 6.6389112 1.2905647 29.115
5.806232 -1.2846459 -0.82360834 16.200001
5.8929148 -0.95366222 -0.87152499 15
5.6777534 -0.73146933 -0.88050461 15.5
5.8245826 -1.3396243 -0.60327142 17.799999
5.731986 -3.3830061 -0.076446645 22.073999
5.8288484 -3.0300796 -0.12095393 22.0765
5.8310995 -1.3436744 -0.21856804 20.861111
5.6861539 -0.07611353 -0.091782726 22.09
5.8229299 2.5328588 -0.096536197 22.050751
5.9886727 4.7752748 -0.053605299 22.112
5.7154546 4.83078 -0.049403597 22.113501
5.7155356 -4.7307763 0.27920955 24.534708
5.8419914 -1.3842424 0.12713918 23.633099
5.8679895 1.0762075 0.31127399 25.097
5.7152467 2.5543532 0.19847804 24.010756
5.6245222 2.8587058 0.29578447 24.7066
5.8356252 5.6062222 0.24214728 24.112499
5.7224059 6.314395 0.057568643 23.1145
5.8489504 6.6196384 0.31515437 24.1175
5.8924818 -5.2151952 0.70516211 26.819595
5.6296382 -5.0232701 0.60553914 26.379333
5.6985345 -4.7426815 0.54154623 26.03525
5.7437077 -1.5481498 0.53732687 26.832563
5.844439 2.6115911 0.65367573 27.046583
5.802537 2.9464765 0.64844781 27.104
5.7567401 6.5872989 0.4855442 25.116125
5.8588128 -5.210978 1.0114876 28.6
5.761652 -5.1986179 1.095963 29.158875
5.9816513 2.2969253 0.99273103 29.1005
5.8180232 2.5478315 1.0560551 30.203949
5.8565516 -5.2083435 1.3519892 30.65
5.7985663 -5.1844893 1.4281987 30.805109
5.7863088 2.5292823 1.2688998 31.101915
6.178124 -1.2876219 -0.83476704 16.4
6.2781315 -1.0374172 -0.87433887 17
6.2935753 -0.72046316 -0.86976773 17
6.1127796 -1.3505876 -0.60600364 18.071428
6.1109548 -0.96401358 -0.62885922 18
6.1221995 -1.356302 -0.15566316 21.444445
6.1071968 -0.96733928 -0.24475728 21.086
6.1938958 4.7043138 -0.088570245 22.110188
6.3151517 -5.211585 0.30700955 24.53475
6.217608 -5.0936885 0.20203653 24.03525
6.198997 -4.6919651 0.16761161 23.787483
6.1560755 -3.6676087 0.06715101 23.073999
6.1248503 -3.4849 0.042224064 23.07575
6.1582322 -1.4010437 0.12764357 23.531374
6.1943493 2.527179 0.21056706 23.895189
6.023541 6.6064224 0.31956294 24.116751
6.3034177 -5.2293382 0.69339138 26.561615
6.3452802 -5.1944671 0.41754889 25
6.2010717 -1.650044 0.62492377 27.249166
6.201407 2.5425918 0.70478463 27.174282
6.2223005 6.5647483 0.48546627 25.113501
6.2759871 -5.2311854 1.0810847 28.790083
6.2000198 2.5235462 1.0867575 29.874054
6.2786131 -5.2218561 1.4371141 30.723417
6.1596184 2.4892428 1.3019116 31.016876
6.164156 2.9023077 1.3876511 31.102501
6.1148582 -5.1685324 1.6075563 31.070999
6.5055127 -1.2378056 -0.81639475 16.5
6.6415911 -0.91989994 -0.87925088 16.5
6.5542569 -0.72381365 -0.87786162 16.5
6.586627 -1.373003 -0.58472556 18.333334
6.5245285 -0.71750426 -0.70978552 17
6.4122729 3.2965558 -0.45667717 20
6.588048 -1.3730748 -0.15418822 21.43075
6.4277287 -1.0099938 -0.18796062 21.085751
6.7475724 -0.062666699 -0.29655564 20.545
6.5922594 0.24215923 -0.31261581 20
6.5241008 2.6361439 -0.045626432 22.1035
6.480422 4.6098423 -0.078177184 22.109499
6.624198 -5.2382421 0.28217685 24.35121
6.6680808 -5.0340443 0.25621057 24.0725
6.6980166 -4.6797433 0.12472098 23.488125
6.6290426 -1.4792892 0.18733175 23.958687
6.5042567 0.26146498 0.042651329 23.091499
6.6656618 2.510469 0.10848846 23.268751
6.6039324 -5.2432404 0.56631398 25.821331
6.7236476 2.5974789 0.41522726 25.102625
6.6706619 -5.2538991 1.0251358 28.247042
6.540411 2.6038694 1.0653987 29.180573
6.6593843 -5.2379894 1.4360292 30.60675
6.5981426 2.4490333 1.3304209 30.909542
6.5580392 -5.2236052 1.6825529 31.071751
7.1533084 -1.2823222 -0.81778258 18
7.1288543 -0.66348612 -0.81154829 17
6.9652171 -0.97464818 -0.51370579 19.25
7.0320702 -0.71746069 -0.78573459 18
6.9785094 -1.2311561 -0.15535824 21.4
6.9872608 -0.9899019 -0.18677504 21.413
7.0350723 -5.3991804 0.35777673 24.5
7.0684414 -4.7459497 0.23736237 24.072124
7.0183549 -1.3549826 0.28143966 24.411333
6.928421 -0.97221857 0.23573916 24.097221
6.983901 2.4888277 0.2744208 24.289545
7.0785952 -5.3854761 0.61822999 25.863041
7.1972766 -5.0989389 0.48312885 25.07325
6.9643898 -1.3166432 0.54893517 26.136829
6.9169888 -0.99781621 0.58045435 26.359829
6.955759 2.5318453 0.68418473 26.550751
7.0592332 -5.3804545 1.0639435 28.071377
7.0433383 2.5001128 0.98730069 28.300377
6.8124809 2.8857725 0.9084236 28.101999
6.9586515 -5.2602425 1.4192888 30.118876
6.9955816 2.4389102 1.3874576 30.628931
6.9101038 -5.247581 1.657142 31.071751
7.2573276 -1.3611474 -0.82545584 17
7.4242578 -1.0139363 -0.82597357 18
7.4445982 -0.59456569 -0.83350235 17.333334
7.4168854 -1.3477777 -0.59980303 18.625
7.4852624 -0.50244713 -0.6491645 19
7.4771338 -1.3738192 -0.31177533 20.5
7.4204545 -4.8523417 0.20510806 23.80525
7.2397223 -1.3987163 0.092030674 23.084999
7.5966105 -0.71545953 0.2952202 24.4
7.3310642 2.4362557 0.19555791 23.849501
7.3499665 -5.3807688 0.67680484 26.035875
7.4065018 -5.0667114 0.5544498 25.55065
7.2116408 2.3466558 0.75228512 27.099501
7.4357791 -5.3754759 0.99365979 27.719646
7.5798569 -5.1954384 1.1344154 28.6
7.4148722 2.3678699 0.81741184 27.099001
7.431241 -5.2792406 1.4038506 29.807251
7.5287962 -5.150713 1.519739 29.968946
7.3701558 2.396673 1.4995683 31.099501
7.5544033 2.4539728 1.25674 30.101
7.4849849 -5.2705441 1.7241083 30.867502
7.5040345 -5.142468 1.7816491 31.036751
7.6562748 -1.2282547 -0.80859125 17.5
7.6571989 -1.0251927 -0.86718929 17.5
7.7423491 -0.27902257 -0.86113787 17.666666
7.8858809 -1.5245714 -0.57444429 19.299999
7.6417332 -0.84241539 -0.77102292 17.666666
7.7045646 -0.61958736 -0.55509877 19.266666
7.7554426 -0.22757423 -0.590186 19.208332
7.8891315 -1.5402654 -0.1765168 21.625
7.6812387 -0.8140955 -0.13809848 21.75
7.6934047 -0.64470536 -0.134285 21.8125
7.7452173 -0.24595247 -0.20549016 21.339745
7.7651205 0.05921638 -0.30922264 21.090626
7.614563 -4.8357167 0.031868719 23
7.7685289 -4.6344314 0.25262365 23.970917
7.8821521 -4.2253218 0.19568977 23.692331
7.9068999 -3.9259136 0.17160296 23.5
7.951848 -1.6153744 0.22490571 23.875
7.6372414 -1.4505081 0.072542638 23.084499
7.612782 -0.6078378 0.30244511 24.25
7.6437273 -0.18780795 0.16303113 23.555557
7.6433234 0.091394745 0.26509097 24.154165
7.8549562 2.4397044 0.27511802 24.1005
7.6309652 -4.9217324 0.63678175 25.861109
7.8157744 -4.628624 0.62022299 25.700001
7.8951287 -4.2272801 0.64003533 25.833334
7.9159164 -3.8576002 0.70162141 26.333332
7.9333777 -3.4349182 0.65601486 26.022356
7.9832492 -1.6532072 0.70325023 26.625
7.9095535 -1.4768437 0.77103835 26.853333
7.9225836 -1.1773795 0.78373367 27
7.6108823 -0.70664901 0.43007138 25
7.6573558 0.13839032 0.42294124 25
7.608541 -5.233161 0.9842459 27.5
7.6301837 -4.8837113 0.98268878 27.507408
7.830133 -4.6450024 1.0110999 27.704762
7.8947988 -4.2891545 1.0136095 27.799999
7.9112802 -3.869359 1.046286 28
7.93433 -3.4612541 1.0020897 27.870369
7.9251084 -3.1396682 1.096082 28.166666
7.9870691 -2.4235277 1.125254 28.5
7.9907436 -2.2762926 1.0783967 28.416666
7.9559193 -1.6561451 1.0570309 28.5
7.8968 -1.357151 1.0777026 28.652777
7.9225006 -1.1786366 0.95701432 28
7.6491208 2.4388773 1.1360617 28.599001
7.624959 -4.8794813 1.4393256 29.694443
7.8098302 -4.6397538 1.4180108 29.714285
7.8824992 -4.2694902 1.4738706 30
7.8991475 -3.8690665 1.4468008 30
7.9232783 -3.4600818 1.420936 30.166666
7.9101615 -3.0739281 1.4096322 30.077236
7.9574332 -2.6654963 1.39442 30.033331
7.9860549 -2.2143605 1.410219 30.333332
7.9685154 -1.760198 1.4676377 30.6
7.8841152 -1.3047698 1.4097836 30.5
7.8998022 -1.1747857 1.4096291 30.5172
7.9880767 2.3695526 1.4148883 29.666666
7.8558226 2.5196931 1.4779592 30.265833
7.6130171 -5.2476053 1.6231974 31
7.6130571 -4.9348478 1.7730724 31
7.8004055 -4.6516533 1.7125353 30.888889
7.8596482 -4.3168592 1.7611853 31
7.8811884 -3.9115295 1.7304204 31
7.9012237 -3.4382937 1.6823474 31
7.8831797 -3.1183789 1.6865201 31
7.9416695 -2.7182634 1.7019992 31
7.9685783 -2.1668897 1.6776181 31
7.9974198 -1.6401343 1.6604185 31
7.973732 2.3679664 1.6875291 31
7.9748964 2.5377676 1.6966563 31.099001
8.0285864 -1.6966109 0.35818031 24.583332
8.390686 -0.86003375 0.37095666 24.666666
8.3422489 0.15136436 0.31704414 24.29575
8.3713207 1.3462487 0.34652251 24.594999
8.1809607 2.2838485 0.39667112 24.599501
8.0222721 -2.0558228 0.75077403 27
8.0207663 -1.8511857 0.59131581 25.871796
8.3463192 -0.91968048 0.68131888 26.25
8.2103987 -0.67689294 0.60917878 25.892981
8.2514639 -0.15019582 0.57798493 25.767857
8.3415022 0.24175805 0.6424256 26.030668
8.3831854 1.3727224 0.45184225 25.096001
8.0080347 -2.1444921 0.95986778 27.916666
8.0183001 -1.766048 1.0255952 28.218182
8.3000479 -1.0212418 1.0283135 28.217199
8.2141104 -0.6454041 0.94345284 27.625332
8.2422686 -0.13493136 0.96551156 27.79303
8.2680922 0.0040746788 0.81817728 27
8.0116444 -1.6543553 1.394538 30.166666
8.3561821 -1.1071895 1.4707739 30.049999
8.3567162 -0.95758337 1.6802039 31.029167
8.4553833 -0.96865082 0.30007824 24.166666
8.4721327 0.2895734 0.24980734 23.833334
8.5016632 0.53350258 0.2393752 23.835953
8.552597 1.294174 0.28216037 24
8.7757406 1.8035618 0.30673322 24.09725
8.7991152 2.2050195 0.26557428 24.0975
8.4848318 -0.95008546 0.65921795 26.155355
8.5767269 -0.21575354 0.69506609 26.367697
8.6140518 0.1176266 0.65629429 26.060667
8.5747576 0.59073436 0.58853596 25.599394
8.5879488 0.97743207 0.62163812 25.803524
8.6678371 1.4359579 0.63235343 25.759943
8.7988768 1.7207316 0.70702124 26.097
8.4564228 -1.0638554 1.0441235 28.121214
8.5380735 -0.53347528 0.99697828 28.088749
8.7200289 -0.20740785 0.96529573 27.756668
8.7844057 0.12176824 0.99238789 27.333334
8.7196627 0.66045761 1.0092382 27.840525
8.6576204 0.99420208 1.010452 27.864832
8.6635914 1.3984795 1.0247978 27.788183
8.7786551 1.7390376 1.0303624 27.821806
8.4811773 -0.94470298 1.4366664 30.152884
8.6674271 -0.63829321 1.3523409 29.472614
8.6151037 -0.27005908 1.4997753 30.307611
