# .PCD v0.7 - Point Cloud Data file format
VERSION 0.7
FIELDS x y z intensity
SIZE 4 4 4 4
TYPE F F F F
COUNT 1 1 1 1
WIDTH 1207
HEIGHT 1
VIEWPOINT 0 0 0 1 0 0 0
POINTS 1207
DATA ascii
-48.280144 -5.5360389 -1.2054659 22.01
-48.091019 -4.8570166 -1.2123128 22.1775
-48.11581 -4.6623225 -1.2012142 22.009501
-48.231674 -5.3952074 -1.0659329 22.17625
-48.121113 -4.6725631 -1.1795506 22.175501
-48.303349 -3.2466466 -1.1932832 22.165501
-48.08556 -3.1976817 -1.0710782 22.0035
-47.876987 -2.665664 -0.92235303 22.174999
-47.687222 -2.3059852 -1.0964311 22.084375
-47.89159 -0.65769845 0.038448717 23.110498
-47.909828 -0.66161841 1.1850052 24.110498
-47.861607 -0.53369331 2.2938728 25.0035
-47.812908 -8.8981361 4.5074687 27.011999
-47.486485 -1.6596657 -0.90847069 22.1745
-47.404533 -1.4299878 -1.0862254 22.083874
-47.251511 -1.1183736 -1.1826332 22.0075
-47.378738 -7.959868 4.4511886 27.011499
-47.154362 -0.9467231 -0.89786232 22.174
-47.014969 -0.50864089 -0.9618538 22.0035
-47.089336 -6.8145328 4.6494961 27.1775
-46.835625 -6.4213462 4.4839196 27.178499
-47.010166 -6.2588181 4.5065737 27.1765
-46.562447 -7.0337572 -0.044790663 23.094
-46.141266 -6.9535413 -1.1533594 22.011
-46.250824 -6.6501927 -0.9220891 22.1775
-46.324249 -7.2007041 -0.056601118 23.179001
-46.346039 -6.9804058 0.097102568 23.0075
-46.225391 -8.6033487 5.478653 28.011999
-46.325832 -8.9175081 5.6224647 28
-45.697392 -6.9667516 -1.0816509 22.121168
-45.749363 -6.9308467 4.3999729 27.177
-45.907364 -9.4857397 5.5928683 28.178499
-45.908699 -8.5373764 5.453958 28.008499
-45.912178 -10.274147 5.8521972 28.1675
-45.22739 -7.679255 -0.02544619 23.1775
-45.286495 -7.6143966 4.2964354 27.007999
-45.551971 -7.082427 4.3754082 27.179001
-45.192333 -7.5900922 0.094018288 23.007999
-44.741837 -7.7825933 -1.1420629 22.179501
-44.557148 -7.5148602 -1.050656 22.065666
-44.583965 -7.755609 -0.054966945 23.179501
-44.720772 -7.5297437 -0.058112763 23.011499
-44.479485 -7.5525336 4.2931566 27.1775
-44.219292 -8.2155838 -1.0203009 22.01025
-44.220249 -8.2892418 -0.039997347 23.094999
-44.111019 -8.1621008 0.091126829 23.008499
-44.121029 -8.1692305 3.1681046 26.008499
-44.393566 -10.216914 4.3238974 27.000999
-44.182968 -9.8404598 4.2017627 27.013
-44.329144 -12.942517 4.4843955 27.001499
-44.195679 -10.729594 5.6623125 28.167999
-43.64925 -9.0038481 -1.0906252 22.089249
-43.897957 -8.5186548 -1.075549 22.0035
-43.643913 -8.9660149 -0.053422146 23
-43.904175 -8.4549761 -0.054526977 23
-43.653889 -9.0011368 1.0138564 24.089249
-43.679012 -9.0411978 2.1108429 25.178499
-43.63715 -11.07125 4.3807597 27.0005
-43.759441 -10.290341 5.4518604 28
-43.811539 -8.9589863 5.2146807 28.012501
-43.596359 -8.6959906 -1.0940224 22
-43.574821 -8.6890383 -0.053917691 23
-43.268551 -13.45381 4.3973413 27.002001
-43.365791 -8.871726 4.1078515 27.012501
-43.438229 -14.363179 6.6209879 29.002501
-43.095024 -9.6147594 -1.0833826 22.013
-43.083237 -9.6067104 0.98211259 24.013
-43.112141 -9.6103277 2.0248077 25.013
-42.632095 -9.8162479 -1.1018327 22.000999
-42.617771 -9.8131742 -0.053708676 23.000999
-42.63044 -9.8162241 0.99429089 24.000999
-42.714687 -10.278722 5.4309812 28.17
-42.348427 -9.9130297 1.1586215 24
-42.062019 -9.6879263 5.1569972 28.000999
-42.110012 -9.3816433 5.0343275 28.013
-41.894943 -10.140021 -1.0001459 22.167999
-41.921741 -10.151965 0.056807172 23.167999
-41.918839 -10.156752 1.1144155 24.167999
-41.681713 -10.553153 5.214242 28.0005
-41.326859 -10.420851 -0.86774665 22.0005
-41.29924 -10.425737 1.1310704 24.0005
-41.309361 -10.434639 2.1396103 25.0005
-41.518406 -7.7432694 2.9249573 26.011999
-41.470623 -11.324122 5.3419089 28.009001
-41.383312 -14.473496 6.3446746 29.003
-41.597054 -14.223013 6.3170857 29.002001
-41.50639 -12.930821 6.0827789 29.011999
-41.424637 -16.931751 7.3154569 30.0145
-40.475887 -8.2905617 2.8637943 26.012501
-40.68911 -10.579969 5.2079477 28.1705
-40.296665 0.086612821 -0.89071023 22.161501
-39.934544 -0.64806402 -0.88690364 22.162001
-39.623158 -1.0259891 2.7631471 26.005749
-39.714565 -1.0853592 2.9661388 26.164499
-39.672649 -10.766669 4.0016708 27.000999
-39.776058 -11.64953 5.156918 28.009501
-39.961773 -10.855859 5.0211201 28.000999
-39.872478 -13.127596 5.8710351 29.012501
-39.218906 -2.082603 -0.88017708 22.163
-39.583855 -1.3713387 -0.88357335 22.1625
-39.484226 -10.694519 1.0832266 24.000999
-39.244354 -0.2075896 2.0225096 25.002001
-39.263741 -9.526268 3.0478806 26.167999
-39.452198 -8.8020802 2.8041894 26.013
-38.92334 0.52206713 1.0482401 24.001499
-38.473373 0.40215555 0.95884991 24.1635
-38.620003 0.84699142 1.0074263 24.081749
-38.557407 -11.164572 2.0104623 25.001499
-38.431049 -11.143885 4.8511596 28.001499
-38.038177 -0.63857204 1.0576072 24.174
-38.115761 -1.0001299 1.965197 25.002501
-37.77055 0.35185289 0.94243401 24.003
-37.65868 -11.617767 1.9708138 25.002001
-37.639832 -1.9632844 1.9319052 25.174999
-37.728699 -11.662947 3.6866689 27.011999
-37.652248 -11.633574 4.7757678 28.002001
-37.518337 -11.589112 1.8689033 25.011999
-37.513115 -1.6756966 1.8459669 25.111502
-37.414814 -0.98914665 1.8416122 25.111
-37.372688 -0.58956522 1.9432763 25.162001
-37.357269 0.35382691 1.7832692 25.003
-37.599342 -9.7579937 2.8773789 26.1705
-37.329941 -13.726373 3.8761184 27.087749
-37.159805 -0.38355178 -0.92580462 22.164
-37.096554 -21.722677 0.057533782 23.008499
-36.841335 0.98511261 0.087837562 23.002501
-36.818836 -12.057584 1.9344586 25.002501
-36.916267 -0.38645506 1.8471396 25.164
-37.030434 0.41059592 1.6816832 25.0065
-37.182739 -0.27121171 2.6174574 26.0035
-36.976158 -12.855421 3.8006718 27.003
-36.805183 -12.635627 3.7186444 27.002001
-36.937012 -12.08542 3.6275115 27.012501
-36.85178 -12.086756 4.6981468 28.002501
-36.506527 -0.12577285 0.087007113 23.002001
-36.658058 0.24084866 0.088728175 23.082251
-36.699608 -11.997987 1.8368376 25.012501
-36.764267 -0.26195112 3.423377 27.0035
-36.008179 -12.473617 -0.79660833 22.003
-36.208134 -11.819082 -0.79604846 22.012501
-36.19838 -1.5719925 0.079762511 23.003
-36.058903 -1.0984341 0.15696128 23.1745
-36.175354 -0.56889194 0.16010888 23.174
-36.197895 0.67227882 0.0910886 23.081249
-36.117771 -12.409332 1.8172957 25.002001
-35.994549 0.39245659 -0.9035576 22.0065
-35.983086 0.43610305 -0.89557624 22.1635
-35.993649 -12.485968 1.8992465 25.003
-35.777504 -0.35424528 2.6899099 26.164
-35.696636 0.36509284 2.5106165 26.003
-35.478924 -13.125609 0.8934145 24.002251
-35.223942 -3.6574185 1.8087145 25.1765
-35.208313 -10.818013 2.5917161 26.011999
-35.263763 -12.856346 3.502048 27.0135
-35.285465 -12.983777 4.705441 28.171
-35.461891 -12.248657 4.5233665 28.002501
-35.288895 -13.565719 5.2814512 29.014
-35.145813 -12.955475 -0.94841969 22.004499
-35.124477 -13.031695 -0.79124337 22
-35.137615 -13.038743 0.062049985 23
-34.864166 -13.373791 0.89183778 24.115667
-35.130116 -12.994122 1.7695373 25.002251
-34.545799 -6.2098427 -1.5215944 21.008499
-34.508583 -13.382985 -0.050058927 23.08675
-34.508759 -13.297638 0.062111102 23.004667
-34.511654 -13.648436 0.87525696 24
-34.710514 -13.408373 0.91081816 24.007
-34.578465 -13.30784 1.7559444 25
-34.417542 -13.197991 1.7513658 25.014
-34.70665 0.5507403 1.7694658 25.162666
-34.773567 0.96226889 1.6583503 25.002501
-34.452869 -11.205078 2.5485551 26.012501
-34.412563 -13.199437 3.4382241 27.014
-34.568203 -12.748047 4.421555 28.004499
-34.132599 -13.653049 -0.96942401 22
-34.10881 -13.446379 -0.8840881 22
-34.034817 -13.328336 -0.77297354 22
-34.114666 -13.075286 -0.76940387 22.007
-34.125324 -13.653769 -0.050786819 23
-34.215862 -13.549899 -0.03793681 23
-34.196651 -13.514748 0.059587512 23
-34.203815 -13.477697 1.7201668 25.001249
-34.209766 -13.475394 2.5673583 26
-34.05323 -13.509451 3.4216633 27.0175
-34.034351 -13.719813 5.124804 29.0145
-33.794453 -13.686028 -0.91386575 22.070301
-33.969208 -13.392822 -0.96280724 22
-33.891808 -13.66238 -0.7737053 22
-33.771927 -13.696436 -0.042772312 23.115999
-33.872711 -13.825438 0.058539063 23
-33.784409 -13.692346 0.85422713 24.058584
-33.951332 -3.7388098 0.84762067 24.0065
-33.768196 -13.674458 1.7173343 25.001167
-33.643696 -4.482759 2.3527386 26.0105
-33.628769 -3.2931199 2.5835845 26.004499
-33.325924 -13.926841 -0.86849391 22.018
-33.593578 -13.840241 -0.76984584 22
-33.332867 -13.927169 -0.022747433 23.018
-33.440945 -13.888803 0.85400671 24.008999
-33.474308 -4.0372558 0.92271 24.177
-33.349953 -1.4189973 0.83216494 24.165001
-33.561394 -5.67173 1.5614567 25.011499
-33.425854 -13.88191 1.6968834 25.008999
-33.57922 -5.7591057 1.6245956 25.1775
-33.543373 -4.2663355 2.3753741 26.007
-33.509079 -13.839033 2.5459707 26
-33.357059 -3.0960076 3.1138709 27.006001
-33.49873 -13.836249 3.376564 27
-32.857212 -14.562833 -0.91231006 22
-32.879463 -14.059422 -0.88427222 22
-32.856514 -13.849929 -0.8696965 22
-32.861889 -14.564819 -0.046691898 23
-32.898628 -14.06877 -0.028664315 23
-32.828114 -14.035535 0.01137007 23
-32.86758 -13.859417 0.013422351 23
-32.981644 -3.9636562 0.12975977 23.177
-33.161327 -4.243103 0.73976254 24
-32.891003 -14.06545 0.84323812 24
-32.867065 -13.864175 0.89690685 24
-32.936848 -2.5787356 0.88601059 24.004
-32.819717 -5.726841 1.5773242 25.179501
-32.829277 -14.589605 1.7032553 25
-32.914688 -14.048403 1.6970013 25
-32.924927 -12.12671 2.6469646 26.171
-32.750134 -11.28483 -1.5462155 21.003
-32.674171 -15.02422 -0.94149023 22
-32.720177 -14.651179 -0.90629345 22
-32.723568 -14.236875 -0.8774513 22
-32.683132 -4.4301414 -0.81702268 22
-32.757656 -4.1963425 -0.81871104 22
-32.762039 -4.1442909 -0.67215776 22.007
-32.750179 -3.9268196 -0.6451599 22.177
-32.656483 -15.043288 -0.056639008 23
-32.676674 -14.631228 -0.04154975 23
-32.697506 -14.246831 -0.028482778 23
-32.680004 -4.4487143 -0.034373082 23.118332
-32.797977 -4.2934928 -0.043694433 23
-32.734035 -14.962231 0.0069040935 23
-32.769222 -14.741389 0.0085182842 23
-32.739624 -14.234282 0.010995445 23
-32.719307 -4.5154872 0.12589377 23.1775
-32.566383 -3.8032014 0.76920635 24.176001
-32.597221 -3.2820892 0.7528584 24.1775
-32.682194 -15.035495 0.85385305 24
-32.731663 -14.640039 0.85680091 24
-32.725323 -14.243189 0.86794293 24
-32.566246 -3.7694268 0.87445158 24.004999
-32.524708 -4.3889813 1.5664105 25.1765
-32.727764 -14.191642 1.6956277 25
-32.415489 -2.1314862 1.682749 25
-32.402706 -4.4785566 2.4387748 26.1775
-32.568489 -1.8202 2.4728663 26.167252
-32.169445 -15.338562 -0.95012641 22
-32.297451 -15.083099 -0.90493399 22
-32.145016 -15.324156 -0.055310588 23.0014
-32.241829 -15.101911 -0.028786492 23.002499
-32.367214 -3.2978866 0.13055496 23.1765
-32.215649 -6.0361009 0.73051816 24.011999
-32.146065 -15.327428 0.82944119 24.0014
-32.300262 -15.084266 0.81231445 24
-32.086319 -2.1908898 0.87119377 24.0585
-32.126495 -1.798164 0.86875552 24.081501
-32.271797 -1.5815023 0.89631552 24.174999
-32.249699 -7.4604869 1.5669731 25.000999
-32.033062 -3.7430205 1.5399294 25.176001
-32.027702 -3.2244103 1.5267472 25.1775
-32.072678 -3.0364761 1.5028492 25.007751
-32.221302 -2.0117416 1.6733917 25
-32.2789 -5.4568653 2.2730343 26.011499
-32.160046 -5.0168462 2.2716823 26.009499
-32.306107 -4.6292906 2.290952 26.0075
-32.002529 -2.4648829 2.2226486 26.009001
-32.014656 -2.3933077 2.2524059 26.005501
-32.383793 -1.8883138 2.2763791 26.004999
-32.306351 -12.542931 2.5218241 26.1215
-32.090099 -3.2765398 2.4101772 26.1765
-31.907402 -15.343003 -0.84590292 22.019501
-31.917631 -15.345277 -0.016963065 23.019501
-31.997139 -15.274329 0.0085966699 23.1735
-31.679487 -3.1243291 0.74724388 24.175501
-31.709095 -2.6210051 0.79115033 24.166
-31.653105 -2.3560674 0.78802413 24.005501
-31.804564 -1.9200001 0.78190875 24.127625
-31.657866 -1.2905655 0.78750134 24.004499
-31.924929 -15.34616 0.81235069 24.019501
-31.895733 11.228699 0.96319842 24.1525
-31.896528 -4.9748149 1.5075666 25.009499
-31.944117 -4.5673847 1.5338775 25.0075
-31.944801 -3.6849713 1.4725376 25.01
-31.900921 -3.4684253 1.5255604 25.0065
-31.641214 -7.2503881 1.6416816 25
-31.621529 -4.3503656 1.6283295 25.1775
-31.756178 -3.8000998 1.6340795 25.177
-31.670418 -2.0971472 2.3765566 26.175501
-31.764542 -5.6504421 2.9980574 27.008499
-31.347883 -6.0630136 0.73364806 24
-31.328001 -3.6172123 0.69812691 24.01
-31.59444 -2.5456738 0.74378616 24.174999
-31.237265 -15.701066 0.80364633 24.02
-31.319559 -2.911994 0.85386211 24.002251
-31.430166 -2.5264802 0.86718917 24
-31.28063 11.388838 0.94073546 24.172501
-31.424774 -4.8981795 1.5087231 25.179001
-31.286903 -3.6009009 1.6319151 25.004999
-31.494013 -2.6252446 1.6173805 25
-31.590414 -2.5627785 2.3879421 26.110666
-31.338705 -2.4274766 2.4167624 26.004
-31.589563 -4.5101867 2.9636374 27.0075
-31.494581 -3.6305363 2.9471598 27.01
-31.517588 -3.4198244 2.9431109 27.0065
-31.061243 -15.691143 0.06011714 23
-30.816666 -4.7382207 0.73355836 24.177
-30.899183 -4.1278629 0.69161129 24.0105
-31.172775 -15.791958 0.86886865 24.0145
-30.9139 -5.9150887 0.83160979 24.007
-31.147192 -4.2709527 0.85921961 24.1775
-31.176491 -4.7905045 1.5079004 25.177
-31.174187 -4.1619816 1.4420481 25.0105
-31.044386 -2.9005687 1.5947543 25
-30.866779 -2.5224371 1.5341009 25.169001
-30.88839 -2.2307148 1.4928087 25.063334
-30.976744 -1.8589978 1.5224401 25.127625
-30.828829 -3.6737869 2.3190882 26.177
-31.046427 -3.4691396 2.1786621 26.008251
-30.962769 -2.8807697 2.2517588 26.003
-31.193398 -2.7324917 2.340378 26
-31.173548 -4.719079 2.9336472 27.011
-30.464952 -4.8501863 -1.3292215 21.007999
-30.710684 -15.855737 -0.83506572 22
-30.670244 -15.913986 -0.75861007 22
-30.693033 -15.927446 -0.036774989 23.072199
-30.545559 -16.021624 0.0015541168 23.1745
-30.660141 -15.914268 0.057403818 23
-30.667995 -15.989106 0.79008675 24.007999
-30.492737 -5.1641498 0.6888724 24.011499
-30.595306 -4.1996622 0.71098715 24.178499
-30.546553 -3.8138103 0.76262677 24.007
-30.412233 -2.9711187 0.67568272 24.009501
-30.563139 -16.035463 0.85728168 24.1745
-30.660141 -15.940012 0.83213764 24.058832
-30.761526 -2.3663552 1.6053489 25.004
-30.779129 -1.7949234 1.6063994 25.0035
-30.726667 -1.5597575 1.6146313 25.163
-30.747753 -3.5319471 2.3783629 26.004999
-30.612612 -4.0849833 2.8732646 27.0105
-30.635208 -3.8303738 2.8646498 27.007
-30.67721 1.9439925 4.2512484 29.001499
-30.265602 -12.070337 -1.4286906 21.0145
-30.027365 -3.5409422 -1.3069936 21.177
-30.111862 -5.2595835 0.70373434 24.179501
-30.0144 -5.1726122 0.71756434 24.1775
-30.031954 -4.6827021 0.7000646 24.179001
-30.320835 -4.1048121 0.72003943 24.1765
-30.297419 -2.7412071 0.75445187 24.006001
-30.228891 -16.174055 0.86627835 24.0075
-30.170195 -5.7483792 1.435656 25.006001
-30.312021 -2.9001281 1.5837727 25.004499
-29.805841 -5.2474976 0.74820989 24.008499
-29.800995 -4.6233182 0.70828676 24.009499
-29.681583 -4.1866932 0.74194324 24.0075
-29.991415 -6.1741405 1.4096893 25.012501
-29.999203 -5.7303371 1.4623212 25.177999
-29.984518 -5.2850685 1.4452769 25.008499
-29.347857 -5.5136752 -1.4425339 21.011999
-29.390133 -5.0715518 -1.4618585 21.1775
-29.315443 -3.6257966 -1.2676888 21.007
-29.573351 -2.9475377 -1.2812991 21.1765
-29.530155 -17.075634 -0.85037947 22.016001
-29.241547 -16.68133 -0.88748783 22.176834
-29.22753 0.7146948 -0.74073851 22
-29.246819 -16.68815 -0.045252327 23.176834
-29.237556 0.66166192 -8.3231229e-05 23
-29.227976 0.76220018 0.00028590186 23
-29.216991 0.8005566 0.072168708 23
-29.238796 0.70915061 0.74121994 24
-29.208755 -16.050676 0.82603127 24.174999
-29.233017 0.79716933 0.8004114 24
-29.212099 0.98987931 0.80738288 24
-29.215614 0.77042639 1.4536343 25
-28.954863 -4.0616589 -1.2555416 21.0075
-29.128405 -16.36944 -0.80792516 22.007
-29.160383 -16.654739 -0.79522663 22.0215
-29.109373 1.0131736 -0.65676081 22.000126
-28.929064 1.3885199 -0.674734 22
-28.872923 1.6159269 -0.73829293 22
-29.187237 -16.605909 -0.042128872 23.009001
-28.882492 1.5065826 -0.042155255 23
-29.074799 1.0530719 0.054978356 23.000126
-28.908869 1.4162884 0.072778232 23
-29.080133 1.0277451 0.74360836 24
-29.024303 1.4853467 0.71723986 24
-28.969276 1.8165499 0.71010232 24
-29.133886 -16.152626 0.82470232 24.015499
-29.097326 1.0742592 0.80297583 24.0005
-29.058554 1.4825065 0.80262136 24
-29.076506 1.7251105 0.80780202 24
-28.892227 2.0353062 0.80484504 24
-29.044979 1.0924869 1.4294293 25
-28.876591 1.4432155 1.419459 25
-29.016451 1.0531344 2.2297535 26.109001
-28.548046 -4.8463817 -1.4004283 21.011499
-28.51796 -4.4019661 -1.4167284 21.177
-28.721434 -3.7902648 -1.4014028 21.005501
-28.705908 -3.0413394 -1.2362349 21.0065
-28.56308 -1.3102646 -1.2230383 21.174999
-28.43259 -0.79333943 -1.2134337 21.1745
-28.438488 -0.29168481 -1.2101406 21.174
-28.699917 1.8276082 -0.6910553 22
-28.505693 2.2393844 -0.68327081 22
-28.45162 2.419487 -0.72884685 22
-28.725225 -15.831913 -0.0059827324 23.01825
-28.69581 1.8821448 -0.042245097 23
-28.541885 2.1704834 -0.042317268 23
-28.433992 2.4178162 -0.034012586 23
-28.703373 1.8029066 0.033988483 23
-28.47349 2.2675231 0.039946362 23
-28.717239 -15.672755 0.75716299 24.095875
-28.742859 -15.498739 0.7736851 24.0065
-28.704535 2.2116482 0.67873883 24
-28.643591 2.5968237 0.6673674 24
-28.7262 2.4619923 0.80313712 24
-28.714392 -16.346149 1.5598369 25.009001
-28.742428 1.8494822 1.3899014 25
-28.690556 2.24176 1.4136331 25
-28.473488 2.9036779 1.3319879 25
-28.678852 1.8992022 1.984671 26
-28.400938 1.5733529 4.3688641 29.0005
-28.053333 -4.376358 -1.4253802 21.179001
-28.151812 -3.8261507 -1.3962905 21.1765
-28.202728 -3.1712632 -1.3716823 21.004999
-28.366133 -2.5165415 -1.2175412 21.006001
-28.104565 -2.0083749 -1.2028099 21.005501
-28.075891 -16.58522 -0.77931911 22.01475
-28.303246 2.6504288 -0.65548617 22
-28.145561 2.9401305 -0.6920386 22.0425
-28.07622 -16.610765 -0.018407062 23.013
-28.283543 2.6750674 -0.042251132 23
-28.153625 2.8792017 -0.051231451 23
-28.016026 3.224606 -0.033192683 23
-28.378922 2.3857572 0.070019022 23
-28.33436 2.567153 0.074883319 23
-28.119631 3.0659399 0.081299119 23
-28.295589 3.0143743 0.70536751 24
-28.030727 3.2257557 0.65350688 24
-28.329508 -16.466917 0.82209426 24.008499
-28.37937 2.5648489 1.2945567 25
-28.396671 1.5834986 4.3723345 29.1625
-28.291086 1.7894882 4.3909225 29.16
-28.13063 9.4423962 4.3567672 29.164499
-28.135502 2.2186959 4.64429 30.004499
-27.716612 -14.148285 -1.4209158 21.007
-27.691977 -11.031794 -1.4234345 21.0175
-27.960045 -4.252326 -1.3692662 21.011
-27.636192 -3.7503622 -1.3764608 21.0945
-27.813892 -3.2739513 -1.3777189 21.176001
-27.822199 -2.5946455 -1.3489324 21.004499
-27.861336 -16.66466 -0.84916639 22.137125
-27.737333 -1.5120367 -1.1838341 21.004999
-27.622976 -1.0361251 -1.1765786 21.004499
-27.639631 -16.732513 -0.74994749 22.004501
-27.921213 3.3709061 -0.71109188 22
-27.740332 3.7195015 -0.67475152 22
-27.713959 -16.843035 -0.0067298012 23.008251
-27.866976 -16.70022 -0.036442757 23.133001
-27.957724 3.2802866 -0.045509983 23
-27.728018 3.7789328 -0.034394279 23
-27.701246 3.7068019 0.070498854 23
-27.677956 -17.068523 0.76452148 24
-27.989147 3.1663897 0.61072534 24
-27.918951 3.3762367 0.63042969 24
-27.717707 3.7356503 0.64914745 24
-27.614416 4.0070977 0.6553694 24
-27.882109 3.4542868 1.307717 25
-27.73053 3.774559 1.3203087 25
-27.37945 -11.477227 -1.416086 21.018
-27.595934 -5.3477764 -1.4119673 21
-27.38764 -3.2601504 -1.3863834 21.177999
-27.369627 -3.1752081 -1.3367542 21.01
-27.472212 -2.7301404 -1.3594183 21.175501
-27.420023 -2.0209076 -1.3256842 21.004
-27.261835 -1.8421098 -1.3273883 21.1635
-27.296972 -1.4963377 -1.3156511 21.0035
-27.284798 -17.07943 -0.85567963 22.058832
-27.575296 -2.2157469 -1.1894927 21.176001
-27.428341 -0.56163633 -1.1661329 21.004
-27.475603 -16.893288 -0.7692104 22
-27.332729 -2.540796 -0.63248044 22.004499
-27.235956 -2.2322772 -0.66182584 22.12825
-27.594463 -1.5015022 -0.55302608 22.004999
-27.33683 -17.033051 -0.031102961 23.035299
-27.582071 4.0319247 -0.042551622 23
-27.564724 4.028142 0.6023711 24
-27.276173 4.7180948 0.64981556 24
-27.597565 3.9493799 1.2641479 25
-27.267899 4.6913881 1.2894033 25.000999
-27.544228 0.29867965 2.558543 27.0065
-27.061121 -2.677599 -1.3774476 21.130001
-27.015947 -2.1477292 -1.3266801 21.091999
-27.042025 -1.703114 -1.3361783 21.1745
-27.013369 -1.3120855 -1.3122538 21.163
-27.170317 -0.9823935 -1.3059536 21.003
-26.813623 -0.7889086 -1.299731 21.1625
-27.17008 -17.115232 -0.8090232 22.017
-27.140814 -1.6825833 -1.1660697 21.175501
-26.995802 -17.12612 -0.71906531 22.01
-26.965147 -2.1229749 -0.59792155 22.092501
-26.991907 -1.8606158 -0.61190128 22.061333
-27.192318 4.871552 -0.68922597 22
-27.0655 -17.134836 -0.0069892164 23.008499
-27.160969 4.8665628 -0.020359894 23
-27.051291 -17.413223 0.74989516 24
-27.197094 4.8732338 0.64854795 24
-26.964697 6.7880535 0.78653497 24.175501
-26.970045 6.8604598 0.74773788 24.156668
-27.099276 4.9909654 1.2837992 25.00075
-27.139824 1.0385178 2.7826707 27.163
-26.764404 -2.1138847 -1.39206 21.166
-26.485933 -1.4904613 -1.3742902 21.165501
-26.643974 -0.0069167558 -1.1295722 21.0035
-26.425282 0.43766326 -1.1189325 21.003
-26.640615 -17.334892 -0.73704493 22.003334
-26.663029 5.7553263 -0.6306988 22
-26.536741 6.0077667 -0.67036706 22
-26.700378 -17.33577 -0.0029572102 23
-26.562929 -17.362259 0.035687834 23.01
-26.662216 5.7525005 0.053618349 23
-26.535418 6.0050173 0.018488567 23
-26.626585 -17.559347 0.76867038 24.01325
-26.668665 5.7509007 0.73812211 24
-26.494249 6.1139684 0.72701246 24
-26.725103 7.3238707 0.75592059 24.160873
-26.429901 6.336534 1.44779 25
-26.650637 -21.901306 5.9893718 30
-26.675425 -21.864443 6.0105233 30.002001
-26.120264 -14.749445 -1.4542146 21.007
-26.235739 -0.53483224 -1.2700613 21.005001
-26.095329 -0.25911772 -1.264712 21.162001
-26.246849 0.87937492 -1.1104515 21.002501
-26.038942 1.3098288 -1.1010189 21.002001
-26.273285 -17.434856 -0.67729837 22.0205
-26.375439 6.3121357 -0.58200151 22
-26.238323 6.6077271 -0.63679558 22
-26.090775 6.9366546 -0.58260822 22
-26.288403 -17.447598 0.043645751 23.0205
-26.392588 6.2911611 0.091535494 23
-26.24053 6.602128 0.044701938 23
-26.06266 6.9618297 0.09421771 23
-26.09363 6.9095325 0.72418392 24
-26.010492 7.1382537 1.4129603 25.104666
-26.055094 -22.204168 4.2189789 28.001833
-26.336426 -22.057926 5.7966452 30.014
-26.268419 -22.130159 6.6519771 31.014
-25.656935 -15.462104 -1.3834441 21.009001
-25.866007 -14.946466 -1.5050007 21.095751
-25.781292 -0.028355606 -1.3325157 21.164
-25.894903 0.20094565 -1.2474186 21.081751
-25.717663 0.65358621 -1.2311717 21.001499
-25.897343 -18.25042 -0.8401829 22.004625
-25.919935 -17.52215 -0.85956609 22.179501
-25.827753 1.7333554 -1.0917879 21.001499
-25.652788 2.1611221 -1.0845284 21.000999
-25.761421 -18.492466 -0.75187421 22.01725
-25.829201 -17.736692 -0.73998898 22.057999
-25.975973 7.122004 -0.63042319 22
-25.837482 7.4046402 -0.56773627 22
-25.666674 7.7350435 -0.53975952 22
-25.755386 -18.536236 -0.021845561 23.011
-25.868883 -18.265467 -0.05498147 23.006166
-25.912851 -17.718458 -0.016099777 23.018
-25.723528 -18.532898 0.0016215773 23.0245
-25.859787 -17.697546 0.042470768 23.021
-25.949738 7.1562576 0.046523664 23
-25.810526 7.4394884 0.062745877 23
-25.661081 7.7438765 0.11137807 23
-25.991594 -18.355587 0.78175539 24.011
-25.893595 -17.71035 0.76476246 24.018
-25.997736 7.1365509 0.77125198 24
-25.636574 7.7717204 0.77856272 24
-25.951426 7.2583628 1.4529344 25
-25.755899 7.6002111 1.3873167 25.1565
-25.927776 -22.271778 4.1584015 28.01675
-25.637501 -22.411734 4.9088392 29.0145
-25.943724 -22.240746 4.9261675 29.012501
-25.616074 -22.499163 5.9198647 30
-25.860352 -22.271879 6.4852428 31.027
-25.273701 -15.292164 -1.4905493 21.0165
-25.54833 -15.055432 -1.4371154 21.0075
-25.505537 0.72498536 -1.2595251 21.1675
-25.36566 1.0739031 -1.2682617 21.083126
-25.338963 1.2124531 -1.2244445 21.1605
-25.308146 1.6147316 -1.2089746 21.0005
-25.471815 -18.702158 -0.81161398 22
-25.520973 2.5784991 -1.0795239 21.0005
-25.361826 2.9941056 -1.073645 21
-25.241814 3.4057734 -1.0698349 21.179501
-25.310997 -18.687307 -0.71919572 22.014666
-25.531979 7.9832931 -0.51999003 22
-25.399113 8.2530403 -0.5845418 22
-25.278866 8.452198 -0.58344883 22.057833
-25.339682 -18.886822 -0.026626941 23
-25.212532 -18.724646 -0.0039181835 23.0105
-25.375137 8.3199224 -0.027407868 23
-25.56172 7.9357448 0.15504265 23
-25.430254 8.1722622 0.10879305 23
-25.286615 8.4276781 0.11430277 23
-25.204218 -19.013145 0.76374549 24.006001
-25.446428 -18.723234 0.76023066 24
-25.580091 7.9166236 0.77868515 24
-25.391987 8.2514868 0.63544238 24
-25.579573 7.9359765 1.4081893 25
-25.396458 8.3052483 1.2748398 25
-25.206034 8.7125597 1.2638177 25.1735
-25.465149 -25.164104 2.517545 26.025999
-25.330725 -22.602657 4.1456885 28.004333
-25.33742 -22.592115 4.8708239 29
-25.44614 -22.513018 5.6322064 30
-25.31885 -22.588581 6.4491034 31
-25.027824 -15.364978 -1.4226582 21.007999
-25.173504 1.1831989 -1.2702942 21.1735
-25.003841 1.5230149 -1.2905333 21.1625
-25.059803 1.6397228 -1.2353117 21.112665
-24.96426 2.0821407 -1.2083356 21.054667
-25.190262 -18.836 -0.8093136 22
-25.164679 -18.816982 -0.73221636 22.025
-25.015087 9.01999 -0.57265013 22.062
-24.858517 9.3033438 -0.61423659 22
-24.833643 10.385396 -0.50654876 22.081249
-24.813757 10.509552 -0.58021772 22
-25.114305 -18.86895 -0.03281156 23.00625
-24.882057 9.2806826 -0.027085554 23
-24.805944 10.569034 -0.026440263 23
-25.176138 -18.822771 0.0032821812 23.025
-25.155174 8.6443624 0.072234936 23
-25.006866 9.0283728 0.065279692 23.077499
-24.865671 9.2747164 0.10237159 23
-24.860369 10.374775 0.1071059 23
-24.821297 10.491135 0.11549421 23
-25.197426 -19.200638 0.7203781 24.000999
-24.915951 9.1809816 0.76649874 24
-24.874346 10.377105 0.77163303 24
-24.815025 10.490295 0.69558388 24
-25.034052 9.0182495 1.1982908 25.177
-24.863914 10.380244 1.2785262 25
-24.843901 10.460538 1.3871105 25
-24.831329 10.552422 1.8794646 26
-24.971575 -22.755894 4.7935781 29
-24.935009 -22.760679 5.6285892 30.00725
-24.8265 -22.822338 6.4105954 31
-24.786285 -16.155115 -1.3740577 21.01
-24.6628 -15.636886 -1.3955185 21.015167
-24.763496 2.0835452 -1.2527153 21.172501
-24.677629 2.4441042 -1.2162846 21.004
-24.418005 3.0097399 -1.2214065 21.1695
-24.618546 2.6064684 -1.1895671 21.159
-24.643599 7.4548182 -1.0510139 21.165501
-24.524595 7.8798885 -1.0493706 21.165001
-24.408876 -18.538029 -0.70578498 22.011999
-24.740091 9.5181446 -0.55889487 22
-24.58515 9.8367662 -0.58847606 22
-24.465374 10.073174 -0.62945354 22
-24.721468 10.660984 -0.54534119 22.028585
-24.55994 11.014586 -0.57996392 22
-24.45063 11.247914 -0.63868785 22
-24.786959 9.4658337 -0.026884252 23
-24.603313 9.812727 -0.026655369 23
-24.44972 10.09703 -0.026573552 23
-24.721666 10.707869 -0.027062489 23
-24.537741 11.076564 -0.026441 23
-24.427887 11.285831 -0.027526557 23
-24.403048 -18.539492 0.020789636 23.011999
-24.762199 9.476202 0.085296266 23.0618
-24.562555 9.8640575 0.11829982 23
-24.566853 10.176387 0.12595028 23.054167
-24.706694 10.697006 0.10551867 23
-24.522285 11.062044 0.11672077 23
-24.425623 11.279248 0.11062676 23
-24.492117 -19.492712 0.72685885 24.004166
-24.557783 9.8846073 0.71091825 24
-24.51388 10.116424 0.72002035 24.027084
-24.722551 10.689415 0.69566226 24
-24.550018 11.025802 0.69860137 24
-24.450272 11.24582 0.67688245 24
-24.562845 9.8947229 1.2639294 25
-24.472836 10.049923 1.2616935 25
-24.709755 10.558147 1.3642677 25.085751
-24.554371 11.019081 1.3670132 25
-24.426153 11.2755 1.2762296 25
-24.715548 -22.897799 4.7810793 29
-24.749176 -22.857195 5.5863657 30
-24.209337 -15.957739 -1.2883759 21.0205
-24.326399 2.9477637 -1.2352157 21.171499
-24.337826 -18.57604 -0.84767753 22.000999
-24.230833 -18.640266 -0.73642766 22.061625
-24.381796 10.199299 -0.50340301 22
-24.302917 11.506247 -0.59988916 22
-24.140757 11.846359 -0.57762098 22
-24.034513 12.046444 -0.50451702 22
-24.306841 -18.613081 -0.049998011 23.050125
-24.311094 11.513849 -0.02754363 23
-24.086695 11.97435 -0.026316231 23
-24.192417 -18.643049 0.021577148 23.023998
-24.380356 10.16799 0.16140063 23
-24.319571 11.448527 0.074370973 23
-24.157949 11.79534 0.11831891 23
-24.041744 12.026846 0.14122349 23
-24.166773 -19.703964 0.71981126 24.00325
-24.330437 -19.56134 0.73708218 24.025999
-24.363613 10.216224 0.76556414 24
-24.314064 11.493946 0.64688969 24
-24.145672 11.840975 0.69972599 24
-24.015854 12.070496 0.79247183 24
-24.111113 -19.68446 1.4675934 25
-24.318653 11.471237 1.2754661 25
-24.186777 11.738881 1.2752422 25
-24.034431 12.084758 1.9384052 26.162001
-24.253418 -23.066206 6.2859035 31.025499
-24.341591 -23.065079 6.4441633 31.014999
-23.719889 -16.401417 -1.3946643 21.009501
-23.844736 -16.208292 -1.2825282 21.021
-23.603239 -19.718658 -0.85313648 22
-23.911469 -19.563406 -0.85586274 22
-23.771832 -18.878496 -0.84263659 22.001499
-23.667995 5.661664 -1.1375321 21.176001
-23.877172 9.323782 -1.0367863 21.16325
-23.630465 -19.650105 -0.7113114 22
-23.777121 -19.530849 -0.75302362 22
-23.835726 -18.884462 -0.71657461 22.071669
-23.932602 12.253216 -0.55047548 22
-23.763371 12.612747 -0.61616307 22
-23.639996 12.863325 -0.6014505 22
-23.651493 -19.655365 -0.052471627 23
-23.817406 -19.550051 -0.046942592 23
-23.771675 -18.899668 -0.060507428 23.060831
-23.956617 12.236613 -0.024793578 23
-23.771284 12.613529 -0.034544744 23
-23.63262 12.889897 -0.02588243 23
-23.802067 -19.556822 0.0074195163 23
-23.899076 -18.890417 0.027103044 23.01775
-23.908648 12.285193 0.12238459 23
-23.745697 12.613776 0.12288757 23
-23.652319 12.806579 0.17161596 23
-23.829855 -19.865948 0.72018254 24.002136
-23.888084 -19.564339 0.7299242 24
-23.937042 12.241428 0.69704628 24
-23.753151 12.621488 0.65189683 24
-23.748081 -19.894045 1.4625863 25
-23.976738 12.126849 1.2728362 25
-23.662411 -22.451202 2.2932236 26.025499
-23.82789 -23.277596 3.896821 28
-23.79607 -23.303127 4.7078257 29.005167
-23.61022 -23.363472 5.4466686 30
-23.31181 -17.017647 -1.351822 21.011499
-23.270367 -16.724506 -1.3850909 21.01
-23.502785 6.0950718 -1.132198 21.175501
-23.318613 6.5215883 -1.1263776 21.174999
-23.540564 7.726625 -1.0321186 21.174
-23.319736 8.0830936 -1.0274624 21.1735
-23.51432 9.8960638 -1.0288007 21.1625
-23.339447 10.310065 -1.0269792 21.162001
-23.304895 -19.429453 -0.69606107 22
-23.440912 -12.977151 -0.68689781 22.008499
-23.557085 13.009708 -0.58611602 22
-23.423439 -19.776821 -0.055640157 23
-23.576601 12.990542 -0.062140312 23
-23.375807 -19.709953 0.01767648 23
-23.555618 12.979026 0.12353504 23
-23.482548 -20.084124 0.71553952 24
-23.338783 -19.83646 0.72915572 24
-23.548838 13.014952 0.65340185 24
-23.314146 -19.806963 1.4594324 25
-23.225039 -21.129871 2.2386866 26.014999
-23.22151 -19.822073 2.196872 26
-23.527458 -23.446859 3.886234 28
-23.234522 -23.629192 4.6990113 29.021252
-23.512808 -23.433844 4.6613312 29
-22.855404 -17.321194 -1.3469536 21.011999
-22.911009 -16.96171 -1.3244356 21.016251
-22.990873 -16.451212 -1.40346 21.073668
-23.178995 5.1277742 -1.2087241 21.158501
-22.961792 5.5484028 -1.2006319 21.158001
-23.093227 -19.536915 -0.84079158 22
-22.869675 6.0681887 -1.1207516 21.155001
-23.094347 6.9353528 -1.1191189 21.1745
-22.828568 -19.830505 -0.75185782 22
-22.983067 -19.489162 -0.70617247 22
-22.988913 -13.204621 -0.67977649 22.009001
-22.943335 12.98404 -0.58728021 22
-22.847073 -20.097448 -0.06584581 23
-23.053524 -19.903635 -0.034704469 23
-22.97221 12.968523 -0.0271277 23
-22.803898 -20.06267 0.010409768 23
-23.099325 -19.893892 0.0083244508 23
-22.915205 13.022434 0.073757 23
-22.887983 -20.06345 0.69850302 24
-23.054314 -19.899626 0.72077721 24
-22.944662 12.995941 0.63408148 24
-22.847383 13.629788 0.56249112 24
-22.813147 -20.065187 1.4383961 25
-23.020203 -19.912786 1.4523844 25
-22.814278 -21.238056 2.2927001 26.021999
-22.97846 -20.524336 2.2147677 26.013
-22.840101 -20.067461 2.169966 26
-23.146938 -19.875841 2.2106214 26.001251
-23.093781 -23.724855 4.7018232 29.029499
-23.098921 -23.723501 6.2977042 31.029499
-22.520178 -17.12965 -1.2640775 21.022499
-22.577637 -16.760281 -1.4351063 21.018999
-22.6689 -19.775883 -0.83766943 22
-22.731047 5.9660544 -1.1922777 21.157499
-22.536518 6.3865209 -1.1859453 21.157
-22.665356 6.4783092 -1.1143488 21.154499
-22.449446 6.8863688 -1.1077982 21.153999
-22.721561 7.7662106 -1.108986 21.1735
-22.584694 9.409236 -1.0181618 21
-22.402046 9.7082481 -1.0156196 21
-22.773079 11.268029 -1.0180393 21.160749
-22.434801 11.841413 -1.0137194 21.16
-22.720867 -20.091257 -0.74617779 22
-22.68574 -19.716423 -0.72640723 22
-22.764938 -19.576044 -0.7518732 22
-22.48851 -13.472089 -0.67224848 22.009501
-22.708155 13.507932 -0.68230784 22
-22.505539 13.822953 -0.51168531 22
-22.71134 -20.127205 -0.03782706 23
-22.677668 -19.94733 -0.03813133 23
-22.648577 13.588519 -0.061794005 23
-22.776968 -20.008551 0.005592728 23
-22.500389 13.819734 0.074015036 23
-22.533812 -20.087269 0.71090454 24.00775
-22.783661 -19.996168 0.7256707 24
-22.710867 13.869994 0.61360276 24
-22.742149 -28.705889 0.86997563 24.029499
-22.526476 -20.069633 1.4343915 25.008099
-22.71328 -20.143906 2.1503398 26
-22.240356 -17.500265 -1.2997081 21.01775
-22.114756 -17.083277 -1.4290152 21.019501
-22.360418 -16.755926 -1.3111653 21.025
-22.134171 7.4321847 -1.162379 21.164
-22.247875 8.5600033 -1.0957022 21.172501
-22.063236 8.968257 -1.0919222 21.172001
-22.13689 10.134837 -1.0121945 21
-22.203276 12.218618 -1.0110141 21.1595
-22.012829 -19.727625 -0.71979105 22.020666
-22.036049 -19.725185 0.011112546 23.0275
-22.167696 -20.213709 0.71103173 24.003
-22.167271 -20.217299 1.4274853 25.003
-21.676497 -18.091665 -1.3608607 21.011999
-21.709719 -17.705484 -1.2551543 21.0235
-21.653355 -17.348969 -1.4229934 21.179501
-21.873137 -17.003143 -1.2984381 21.025499
-21.965574 -16.625912 -1.3761994 21.012501
-21.692623 8.0654964 -1.1424949 21.156876
-21.854416 9.3615713 -1.0873313 21.171499
-21.911028 10.453417 -1.0088487 21
-21.6357 10.830367 -1.0049591 21
-21.78525 -19.850782 -0.7215932 22.01475
-21.995827 -13.737538 -0.66505283 22.01
-21.902735 -19.758612 -0.023481008 23.0165
-21.796759 -19.832108 0.0034557418 23.0145
-21.780415 -20.429592 0.71138179 24.007334
-21.965364 -20.361715 0.71339977 24.028
-21.666866 -29.390474 0.86537802 24.0305
-21.764151 -22.831448 1.4883183 25.027
-21.710615 -20.430788 1.4155804 25
-21.955839 -20.350275 1.4194804 25.028
-21.825319 -20.359549 2.098798 26
-21.435276 -18.107618 -1.3289542 21.0135
-21.285467 -17.843958 -1.3361269 21.012001
-21.435892 8.5391607 -1.1531136 21.1635
-21.238989 8.910059 -1.146775 21.162001
-21.346138 11.318012 -1.0031449 21
-21.568184 -22.602343 -0.69237375 22.027
-21.430967 -20.05479 -0.69602054 22.022625
-21.348213 -22.423908 -0.011445226 23.0165
-21.481585 -20.040314 -0.036345031 23.021999
-21.559019 -22.594519 0.027711349 23.027
-21.32975 -20.086823 0.01526286 23.020248
-21.443172 -22.502146 0.73526365 24.021751
-21.385847 -20.60957 0.70678574 24
-21.598217 -22.705502 1.4821397 25.0165
-21.380888 -20.602167 1.4089539 25
-21.065247 -18.350416 -1.3362998 21.01325
-20.974154 -17.515324 -1.2775557 21.026501
-21.074484 9.2763004 -1.1238849 21.158667
-20.895548 9.6478262 -1.1074065 21.15575
-21.027292 11.791371 -1.0005916 21
-20.834934 -20.861101 -0.64912117 22
-20.892838 -20.3685 -0.66932052 22.020748
-20.878395 -15.843684 -0.66982913 22.012501
-20.869259 -20.385479 -0.0031825081 23.015499
-20.845663 -20.875072 0.029522968 23
-20.89539 -20.338465 0.029177431 23.025999
-21.015608 -24.51141 0.77004421 24.0285
-20.933289 -20.866993 0.7048735 24
-21.072947 -20.753422 0.71073228 24
-21.176901 -24.716928 1.5345418 25.0285
-20.930565 -20.866261 1.4022511 25
-21.06951 -20.752113 1.3970397 25
-20.996819 -21.106911 2.0939269 26
-20.713875 -18.608782 -1.3403634 21.013
-20.661703 -17.896349 -1.363145 21.016167
-20.644724 -17.598257 -1.3536642 21.014
-20.796984 9.6501989 -1.1475354 21.163
-20.591921 10.144768 -1.1178347 21.157501
-20.572512 10.42504 -1.0666196 21.1495
-20.70821 -20.909781 -0.69512254 22
-20.646368 -20.561279 -0.66613078 22
-20.414745 -14.951059 -0.64821559 22.011999
-20.560385 -14.57461 -0.64608133 22.011499
-20.750128 -20.949644 -0.00715063 23
-20.736856 -20.762877 -0.0062870192 23
-20.690931 -21.314873 0.017149588 23.029499
-20.680029 -21.013201 0.016486462 23
-20.659998 -20.572014 0.015537095 23
-20.693583 -21.314699 0.71189284 24.029499
-20.69429 -20.99197 0.69980228 24
-20.774651 -21.393763 1.4179399 25.029499
-20.701908 -21.001524 1.4016032 25
-20.448017 -21.351267 3.4578855 28.027
-20.336185 -18.461279 -1.3081887 21.0145
-20.160152 -18.127331 -1.3308232 21.0245
-20.190161 -17.862291 -1.3447149 21.0145
-20.223368 10.74297 -1.1398106 21.164667
-20.027843 11.110106 -1.1396303 21.164167
-20.164557 -18.714424 2.6004925 27.028
-20.361498 -21.42238 5.6889648 31.0165
-19.747162 -18.508121 -1.302925 21.020834
-19.717953 -18.209324 -1.2941548 21.0215
-19.775331 -16.500732 -1.3930151 21.002001
-19.822721 11.485235 -1.1390357 21.158501
-19.671606 11.802104 -1.1398329 21.171499
-19.961391 -18.810947 2.6235454 27.014999
-19.707188 -25.587492 4.5450659 29.030001
-19.247559 -18.677546 -1.2473433 21.020748
-19.428448 -16.85755 -1.3921031 21.002501
-19.501139 -21.02413 -0.63543886 22.0275
-19.367867 -21.036737 0.026269045 23
-19.348345 -21.091631 0.67697018 24.008499
-19.418076 -21.064575 1.3543762 25.008499
-19.302328 -21.097034 2.0116131 26
-19.386763 -19.11738 2.5890646 27.022249
-19.375032 -22.463217 4.1694489 29.0285
-19.4055 -21.142769 4.8169227 30.017
-18.862217 -18.854277 -1.2051195 21.026501
-18.833393 -18.776623 -1.2355596 21.028999
-18.980591 -21.264643 0.67587382 24.005835
-18.977118 -21.273849 1.3461411 25.005835
-19.013184 -21.245676 2.0058784 26
-19.061991 -21.28187 4.013577 29.028
-18.941313 -21.383028 4.7927089 30.0175
-18.734697 -18.911011 -1.2784418 21.016001
-18.467306 -11.337011 1.0222963 25.02
-18.654802 -21.436991 1.9995067 26
-18.748209 -19.448549 2.5570071 27.029499
-18.704493 -20.850489 4.5956106 30.028
-18.350851 -18.965279 -1.194177 21.027
-18.196489 -21.665161 0.67645603 24
-18.050554 -10.494435 0.4871625 24.009001
-18.008738 -9.952426 1.0027652 25.0065
-18.129642 -21.756462 1.3367087 25
-18.266464 -21.634604 1.992507 26
-18.245808 2.2898245 3.221704 30.171499
-18.27566 -21.083639 4.5798645 30.0285
-17.795923 -4.5326238 -1.0127976 21.1705
-17.785015 2.4014127 -0.88385475 21.003
-17.978218 -10.358529 0.49341393 24.01425
-17.726284 -21.894714 1.329532 25
-17.65299 3.0276985 1.2454661 26.002001
-17.847666 -21.858877 1.9861091 26
-17.629416 0.36864045 1.8915017 27.002001
-17.959053 1.0180817 1.9452158 27.1605
-17.860115 0.70914149 2.3872111 28.001499
-17.937445 1.0840974 2.0304482 28.002001
-17.70973 0.81145108 2.5138121 29.005501
-17.822166 1.6687007 2.4182334 29.000999
-17.81304 0.35933301 2.8515646 29.002001
-17.710127 0.56431973 3.1155412 30.174
-17.6346 5.2964034 2.9350774 29.157
-17.627777 7.490521 3.012321 30.171499
-17.700783 -21.912359 3.3001873 28.029499
-17.261347 2.4837341 -0.88192129 21.169001
-17.373285 -22.104548 0.67097342 24
-17.206636 -8.5810213 0.50050884 24.007
-17.27022 6.2338781 0.89325225 25.1635
-17.451384 6.7619729 0.99564302 25.155001
-17.205526 6.9683166 1.021724 25.172501
-17.428959 11.38388 1.1067101 25.157499
-17.429398 -22.056412 1.3266299 25
-17.440145 4.1700616 1.4335055 26.158501
-17.266188 10.084926 1.4531994 26.158501
-17.406244 -22.084349 1.9793025 26
-17.258991 -0.04676627 1.8543649 27.110498
-17.485813 0.228651 1.9049551 27.373251
-17.463169 0.66697538 1.9406369 27.668999
-17.388519 4.5171118 1.9122763 27.158001
-17.32588 0.24428357 2.1945078 28.084
-17.315145 0.64579004 2.1910498 28.50425
-17.55813 1.0051689 2.3662643 28.297901
-17.345947 1.7071003 2.345922 28.07975
-17.256863 2.1142237 2.3491409 28.5795
-17.26162 4.7643795 2.379003 28.175501
-17.499279 7.852025 2.3647747 28.1635
-17.47459 1.0448034 2.680948 29.335999
-17.363174 1.3678496 2.6586587 29.448999
-17.299898 1.7181467 2.4643958 29.004
-17.314371 6.2593598 2.4323711 28.1735
-17.451757 1.1148987 2.9033155 30.004999
-17.489143 2.6161866 3.0188677 30.08675
-17.257351 2.8110685 3.0531201 30.168501
-17.58312 5.5434852 2.917479 29.1745
-17.53314 1.0014795 3.3181875 30.1605
-17.272429 2.1636791 3.4899704 31.1695
-17.57338 0.6485858 3.8035798 31.160999
-17.279919 4.4637179 3.7840562 31.176001
-17.415756 -21.532684 4.5500131 30.029499
-16.81999 1.9701806 0.77857655 25.0035
-16.849623 -11.799622 0.97469097 25.024
-16.956127 -11.002087 0.95641094 25.023001
-16.873388 -7.8645945 0.9051922 25.0065
-17.024193 1.3824154 1.1922622 26.004499
-17.177935 1.6298922 1.1818362 26.000999
-16.896885 8.9756002 0.86417896 25.173
-16.929604 -22.315002 1.3216283 25
-17.151556 1.5268313 1.278186 26.172501
-17.123911 6.5968676 1.3506138 26.165001
-17.1362 -22.22522 1.9756289 26
-17.153143 -0.023494791 1.8633745 27.162001
-16.821226 1.0722159 1.9863709 28.004999
-16.868303 1.6612182 1.846238 27.1595
-17.040499 2.9240677 1.615545 27.002001
-17.074116 0.63674945 2.3090179 28.162666
-17.010527 1.5161208 2.1357346 28.172501
-17.017971 1.896715 2.3063912 29.0005
-16.918552 -0.7948783 2.7528775 29.165501
-16.819424 0.86438453 2.5390735 29.1735
-17.199688 2.018008 2.4544485 29.0035
-17.180538 5.0907898 2.6406889 29.166
-17.159752 7.6926312 2.4715316 28.171499
-16.856155 1.8217828 2.9882486 30.172001
-17.18153 0.37445346 3.2203784 30.002001
-16.522236 -13.328683 -1.0128567 21.009199
-16.544819 -0.35502514 -0.90861762 21.165001
-16.512468 -22.599321 -0.62976342 22
-16.466639 -13.308064 -0.49934772 22.011499
-16.487766 -13.104268 -0.45008409 22
-16.600182 -22.55349 0.018672656 23
-16.516623 -13.285237 0.021645108 23
-16.458042 -13.079353 0.030118136 23
-16.595005 -22.548409 0.66696513 24
-16.645685 1.6496397 0.76992476 25.004
-16.698444 2.1488564 0.78375471 25
-16.692232 9.1720171 0.47206867 24.168501
-16.482819 9.2841778 0.56494057 24.1595
-16.698645 -10.58615 0.95522279 25.01
-16.601103 1.277409 1.1386601 26.001499
-16.57715 2.0794177 0.82192445 25.1695
-16.58742 3.1480968 1.1753223 26.001499
-16.639294 8.397171 0.87040794 25.1695
-16.507566 8.6651936 0.8706618 25.169001
-16.590897 9.1167068 0.88471389 25.168501
-16.512087 -22.828154 1.3290124 25
-16.512693 -22.554987 1.3187658 25
-16.413551 1.044933 1.54231 27.004999
-16.699024 1.3153816 1.3615626 26.161667
-16.772593 2.3641059 1.2544304 26.169001
-16.685293 3.1672902 1.5870501 27.001499
-16.727051 9.2742577 1.316403 26.172501
-16.562443 -22.576805 1.9715438 26
-16.642979 1.9243093 1.8555758 27.57975
-16.671352 3.0400536 1.6776953 27.167999
-16.47621 -0.62807596 2.223392 28.0035
-16.429348 1.2924585 2.2277708 28.1085
-16.490166 -0.10241713 2.6680226 30.005501
-16.642672 0.24041584 2.7095981 29.164
-16.517694 0.50566393 2.5948012 30.003
-16.733181 2.7300298 2.5356824 29.168501
-16.519747 4.2741561 2.72651 29.176001
-16.592634 4.6525431 2.7687891 29.165251
-16.611937 6.41822 2.6584842 29.165001
-16.622377 7.5625758 2.4435935 28.150999
-16.729649 -0.75709891 2.9210479 30.175751
-16.666908 0.23791438 3.1729145 30.164
-16.43058 1.3668803 3.0997064 30.0005
-16.719959 1.8721776 3.0185838 31.0005
-16.526445 5.3548346 2.805845 29.153999
-16.191837 -13.223033 -1.1568589 21.001499
-16.086004 0.0022902533 -0.88522828 21.164499
-16.128159 2.4718118 -0.80491728 21.002501
-16.075415 6.9659266 -0.86592317 21.157749
-16.363939 -13.06025 -0.46827856 22.011749
-16.211147 2.3869097 -0.43233579 22.171
-16.187801 2.4816718 -0.41602659 22.002501
-16.387012 -13.341424 -0.017059898 23.02
-16.34355 -13.246755 0.0072141183 23.025999
-16.339554 -13.041919 0.021357447 23.011749
-16.000715 -11.598243 0.50112236 24.018499
-16.083492 -10.490922 0.46650064 24.021
-16.146837 -10.274468 0.45802107 24.09375
-16.092487 -9.8150005 0.45626962 24.125334
-16.364754 -11.566461 0.97679967 25.009501
-16.103451 0.77403337 1.1013154 26.002501
-16.055538 0.95528728 1.1118032 26.003624
-16.189093 1.8970405 1.1381122 26.0035
-16.287998 9.0342255 0.8414188 25.172501
-16.072134 0.7453624 1.4266534 26.669832
-16.194679 1.0370121 1.4636177 27.002001
-16.052097 2.9333112 1.2107198 26.167999
-16.203844 7.0545373 1.3994229 26.157001
-16.352127 9.841157 1.3126247 26.171499
-16.017014 -0.26895854 1.7773627 27.502125
-16.258444 0.98976761 1.7627594 27.000999
-16.133333 1.314136 1.7680902 27.331749
-16.244564 1.6954489 1.844915 27.501875
-16.179695 6.6429148 1.8631415 27.172501
-16.387991 1.3327332 2.3344512 29.004499
-16.244566 1.7669915 2.0497766 28.172001
-16.125647 6.5284977 2.1501322 28.1625
-16.120956 -0.22365598 2.654984 30.0895
-16.022545 4.2643328 2.6796229 29.158001
-16.229826 4.6444049 2.7198434 29.157499
-16.283459 -0.90145326 3.0063336 30.504749
-16.033506 0.72296244 3.0297663 30.001499
-15.643254 -10.452917 -0.90786737 21
-15.71481 -10.361337 -0.82378829 21
-15.755905 -9.6247234 -0.94593501 21.009501
-15.74224 -9.4725809 -0.86999017 21.021999
-15.689727 -9.1991549 -0.93329799 21.009001
-15.657923 1.7154334 -0.81846809 21.172001
-15.751338 2.5283945 -0.81150377 21.168501
-15.805704 -10.499371 -0.47388828 22.002375
-15.638685 -10.950839 -0.03778879 23.178833
-15.772628 -10.506791 -0.090253212 22.894751
-15.725103 -10.96863 0.013302265 23.0175
-15.734901 -10.467945 0.022641476 23
-15.676645 3.8815672 0.39757228 24.1765
-15.916234 -11.683043 0.47865453 24.022499
-15.75247 -11.432833 0.47155488 24.011
-15.792308 -7.7659674 0.44696432 24.089249
-15.829717 3.9153004 0.75708699 25.1765
-15.926586 -11.483487 0.96643656 25.011499
-15.661987 -10.376702 0.91002113 25.0105
-15.674779 -9.4273052 0.86601937 25.021999
-15.61171 -9.0236359 0.8533107 25.0215
-15.699767 0.68296963 0.87630224 25.001499
-15.935579 0.95255977 0.87773734 25.121876
-15.84341 1.2943107 0.85988462 25.1625
-15.747382 1.7032322 0.87293792 25.12075
-15.818587 7.0543962 1.182071 26.171
-15.786142 -0.42957881 1.5785362 27.174999
-15.644012 0.33579904 1.2988418 26.161501
-15.895274 0.55482447 1.3305444 26.333
-15.865338 0.96892041 1.453971 26.666874
-15.891548 1.38162 1.4673117 26.836599
-15.606106 1.6097907 1.2767751 26.162001
-15.663605 2.4053686 1.4847449 27.002501
-15.922688 7.1402936 1.2819386 26.161501
-15.849922 -0.55572236 1.7903206 27.526428
-15.733982 -0.22761706 1.7656767 27.336668
-15.900707 0.64362741 1.7271757 27.1635
-15.8998 1.2869987 1.8154391 27.582249
-15.937359 1.6218979 1.7357047 27.162001
-15.834128 -0.50584483 2.3346558 29.119499
-15.706684 -0.21926725 2.1595514 28.223251
-15.7103 0.081819996 2.1821408 28.504501
-15.82572 6.2037578 2.2957637 28.1525
-15.810569 -0.50392401 2.5983846 29.293501
-15.930422 -0.30853727 2.6039274 29.08325
-15.729375 0.094259687 2.5594573 29.468298
-15.965055 0.58750087 2.6142676 29.1635
-15.972575 1.5646108 2.6207306 29.162001
-15.656158 1.8376328 2.6219671 30.0035
-15.787363 6.4991188 2.5331485 29.16375
-15.920739 -0.082720585 2.9963274 31.089249
-15.985723 0.16105174 3.0552211 31.0065
-15.870522 0.56901151 3.0799484 31.0895
-15.918941 1.132805 2.8271713 30.173
-15.66724 1.2862945 2.9593718 30.582687
-15.801444 0.357034 3.4233313 31.002001
-15.486148 -12.279235 -1.0433679 21.179001
-15.338656 -10.884685 -0.94693244 21.070999
-15.494631 -10.566901 -0.91023248 21.001101
-15.592171 -10.39365 -0.99216115 21
-15.321033 -9.6805077 -0.89314926 21.016251
-15.386094 -9.5752068 -0.95910573 21.176001
-15.49493 0.65774697 -0.85463208 21.1635
-15.478677 -10.520093 -0.48154485 22.025333
-15.471097 -10.391207 -0.49793816 22
-15.315049 -10.877952 -0.002610825 23.009501
-15.456143 -10.546808 -0.14161743 22.668501
-15.333173 -10.341845 -0.076564811 22.833334
-15.275959 2.3762436 -0.12238576 22.5
-15.232212 2.5287232 -0.2464605 22.405556
-15.243688 2.9319272 -0.21040541 22.5
-15.369868 -10.819349 0.029867541 23.021999
-15.315585 -10.329823 0.022112424 23
-15.28002 2.376195 0.37876764 24
-15.248443 2.5457044 0.30867091 23.875
-15.449822 2.9722691 0.34590092 24
-15.500403 -11.312083 0.46502048 24.059334
-15.551737 -10.495856 0.47806659 24
-15.343133 -10.236769 0.43980217 24.075399
-15.396749 -9.8301497 0.46961775 24.094875
-15.465864 -9.1050816 0.46581981 24.012501
-15.257616 2.3521979 0.7125237 25
-15.271032 2.5002062 0.73868585 25
-15.513211 2.9603183 0.46225318 24.169001
-15.498827 -10.622546 0.9121511 25.013624
